ply
format ascii 1.0
comment Created by Open3D
element vertex 946
property double x
property double y
property double z
property double nx
property double ny
property double nz
property uchar red
property uchar green
property uchar blue
end_header
-50.9452 111.665 -92.6882 0 0 1 181 187 187
-45.017 129 -92.9216 0 0 1 182 184 151
-51.3445 110.348 -92.3677 0 0 1 203 210 212
-54.0102 104.041 -92.3707 0.0713673 0.943507 0.323575 225 233 235
-45.7327 134.289 -93.0236 0 0 1 198 203 204
-52.3581 123.245 -92.6335 0.597204 -0.784208 -0.168419 202 210 212
-49.5694 104.702 -92.2636 0 0 1 204 212 214
-58.8456 103.14 -92.2934 0 0 1 203 208 206
-69.2629 103.476 -83.8062 0 0 1 110 118 76
-59.2679 122.032 -92.5279 0 0 1 208 212 213
-67.6071 127.228 -91.2672 0 0 1 184 230 237
-69.9396 117.927 -84.6218 -0.505468 0.515607 -0.691847 57 81 58
-56.764 127.973 -92.6194 0 0 1 202 208 211
-52.9924 102.423 -92.2712 -0.120746 0.620265 0.775043 211 218 218
-45.3304 103.936 -92.3932 0 0 1 202 210 212
-44.9121 108.396 -92.5335 0.0313497 0.804856 -0.592642 217 213 210
-45.8636 119.483 -92.7317 0 0 1 161 170 115
-55.0161 102.506 -92.1465 0 0 1 212 217 217
-45.2242 102.552 -92.336 0.119331 0.344426 -0.931198 204 211 213
-45.3818 125.576 -92.7535 -0.579603 -0.144148 -0.802048 177 188 128
-63.9306 120.785 -92.4223 -0.142525 -0.677846 0.721257 199 203 203
-52.0192 126.635 -92.7113 0 0 1 205 211 214
-68.8618 118.224 -92.3359 0 0 1 147 131 111
-45.4223 110.786 -92.5303 -0.450056 0.837843 0.308979 174 180 140
-51.8912 105.546 -92.5185 0 0 1 223 231 234
-60.5407 105.366 -92.193 0 0 1 197 202 200
-67.6069 103.82 -83.2879 0 0 1 126 136 89
-44.1878 129.027 -92.8813 0.28928 -0.105486 0.951415 182 195 142
-53.4779 106.41 -92.4452 0 0 1 205 212 215
-44.6897 123.787 -92.8084 0.30976 -0.650311 0.693646 183 187 131
-51.0481 116.959 -92.657 0 0 1 208 213 216
-63.1942 115.897 -92.4231 0.0651966 -0.161071 -0.984787 199 206 197
-57.0913 104.52 -92.3753 0 0 1 219 226 226
-52.2997 110.474 -92.4396 0 0 1 203 211 213
-61.0241 133.065 -92.6078 -0.641379 0.203041 0.739869 188 194 198
-68.7012 110.481 -82.5432 0 0 1 57 57 38
-45.5699 123.108 -92.8242 0 0 1 177 187 131
-51.1311 110.385 -92.4862 0 0 1 201 209 211
-67.9825 118.051 -92.3875 0 0 1 152 151 147
-59.4659 110.604 -92.4366 0 0 1 219 225 225
-44.9911 107.777 -92.4458 0 0 1 207 211 213
-51.8284 128.918 -92.7385 0.497614 0.851194 -0.166883 206 211 214
-62.9563 108.354 -92.3351 0.194409 -0.492366 0.848399 185 188 182
-68.0743 131.967 -91.2924 0 0 1 99 121 74
-54.7778 116.084 -92.5009 0 0 1 208 213 216
-59.7913 112.106 -92.3146 0 0 1 221 227 225
-60.1096 125.195 -92.5102 0 0 1 194 195 194
-44.8806 113.965 -92.6401 -0.332537 0.899677 0.282843 147 159 104
-45.2389 114.248 -92.6894 0 0 1 161 172 126
-64.3329 114.485 -92.3716 0.752536 0.616381 -0.23187 190 195 191
-50.2033 115.838 -92.6171 0 0 1 206 212 215
-53.2668 104.709 -92.324 0 0 1 201 209 209
-60.0098 115.78 -92.3779 0 0 1 215 221 221
-44.7727 111.288 -92.5633 0 0 1 177 179 132
-53.2992 125.418 -92.7162 0 0 1 206 212 215
-67.1748 104.85 -83.3378 0 0 1 92 99 65
-53.5458 103.832 -92.3514 0 0 1 161 162 166
-58.613 119.991 -92.5074 -0.263066 -0.0295672 -0.964325 206 211 210
-58.7334 123.307 -92.4884 0 0 1 210 215 214
-61.6158 105.439 -92.2137 0 0 1 184 187 178
-50.3934 106.706 -92.5339 0.19428 -0.645964 0.738231 198 206 209
-60.2379 130.206 -92.5754 0 0 1 178 178 182
-46.3296 125.136 -92.8263 0 0 1 189 188 172
-46.3613 116.035 -92.6266 0.722691 0.597348 -0.347698 165 172 125
-45.7549 124.524 -92.7376 0 0 1 166 179 119
-66.8936 116.864 -92.3561 0 0 1 181 182 181
-66.4424 130.771 -91.4542 0 0 1 198 222 229
-52.2469 103.638 -92.3518 0.93851 -0.284532 -0.195553 201 209 211
-50.289 124.107 -92.6579 0 0 1 201 207 207
-67.4352 127.825 -91.3049 -0.265034 0.128455 -0.955644 190 232 237
-47.793 133.893 -92.9513 0.0564377 -0.139019 -0.98868 199 205 206
-68.3209 104.734 -81.8393 0 0 1 170 176 122
-65.1783 133.134 -91.5861 0 0 1 197 206 207
-57.53 106.662 -92.22 0.783912 -0.372028 -0.497069 221 226 226
-68.2474 104.283 -82.2828 -0.60546 -0.649139 0.460475 114 125 76
-47.8547 127.292 -92.8403 0 0 1 198 207 206
-71.8565 129.077 -92.1335 0 0 1 67 74 49
-69.0307 104.762 -81.3647 0 0 1 123 132 74
-53.1199 112.563 -92.7464 0 0 1 187 192 198
-54.4478 132.03 -92.6935 0 0 1 222 222 228
-61.1183 129.64 -92.5707 0.550114 0.285773 -0.784671 199 205 208
-56.929 109.82 -92.3611 0 0 1 215 223 222
-60.6869 118.405 -92.4127 0.59189 0.793326 0.14248 212 216 214
-48.8135 118.111 -92.7227 0 0 1 196 201 204
-53.4769 110.57 -92.557 0 0 1 192 199 202
-65.8648 111.533 -92.2467 0 0 1 94 97 101
-44.9165 113.753 -92.5997 0 0 1 143 156 105
-50.8961 105.382 -92.4686 0 0 1 174 182 179
-57.5966 119.35 -92.5485 0 0 1 205 211 212
-68.1352 107.76 -81.2115 0 0 1 166 161 135
-58.3584 116.904 -92.4762 -0.527209 0.0524723 -0.848114 212 217 218
-51.9504 103.189 -92.1587 0 0 1 206 212 214
-46.4107 105.291 -92.3578 0 0 1 204 211 213
-44.0209 107.419 -92.5677 0.125276 -0.953652 -0.273595 198 198 190
-46.2426 109.362 -92.5412 0 0 1 193 198 201
-53.1249 116.707 -92.526 0 0 1 206 212 214
-66.2621 134.732 -92.18 0 0 1 123 141 83
-46.2873 113.701 -92.6814 0.699615 -0.404092 0.589278 157 160 117
-49.4344 109.991 -92.6275 -0.0778129 0.105541 0.991366 0 0 0
-62.1096 110.472 -92.2369 0.802578 -0.555613 0.21717 203 209 207
-58.566 118.16 -92.3649 0 0 1 211 213 212
-51.8071 103.734 -92.3062 -0.479991 -0.658552 -0.579585 207 212 215
-53.0573 103.911 -92.3135 -0.625297 0.508155 -0.592269 201 209 210
-57.4224 124.912 -92.6449 0 0 1 214 216 213
-60.6542 110.687 -92.2942 0 0 1 213 218 218
-45.5684 133.744 -92.943 0 0 1 196 200 200
-48.3643 102.359 -92.4406 0 0 1 203 210 211
-44.8692 116.291 -92.6995 0.060743 -0.0324862 -0.997625 102 144 76
-57.9437 106.494 -92.2014 0 0 1 220 226 226
-49.1508 107.007 -92.547 0 0 1 179 189 187
-61.7888 121.208 -92.5054 0 0 1 188 191 189
-70.5169 120.09 -85.7355 0 0 1 70 92 72
-59.3034 135.428 -92.716 -0.308831 -0.540257 -0.782781 187 193 196
-62.5209 110.4 -92.3442 0 0 1 197 200 198
-60.5818 119.666 -92.4292 0.217145 0.779172 0.587996 201 205 204
-59.6801 116.94 -92.419 0 0 1 213 218 218
-46.3763 119.031 -92.695 0 0 1 160 166 119
-61.1757 112.731 -92.3135 0 0 1 210 216 216
-50.0966 102.033 -92.2322 0 0 1 206 213 215
-59.4006 105.213 -92.2233 0 0 1 209 213 212
-66.3056 107.828 -82.9669 0 0 1 0 0 0
-46.6109 122.56 -92.7604 0.912444 -0.281385 0.297101 201 214 193
-49.291 123.851 -92.8168 0 0 1 202 209 210
-51.3639 128.568 -92.7546 0 0 1 204 211 213
-64.9958 127.567 -92.5218 0.72943 0.323921 0.602501 195 196 192
-48.0109 102.228 -92.332 0.819855 0.545772 -0.173122 203 210 213
-64.8633 130.089 -92.569 0 0 1 180 186 186
-65.215 135.371 -92.1306 -0.153661 -0.982714 0.103253 112 121 79
-56.9153 132.569 -92.6497 0.96558 0.156738 0.207578 200 241 254
-44.3895 125.357 -92.7919 0 0 1 191 198 150
-54.0709 133.476 -92.7635 -0.346456 0.861546 -0.371089 212 231 241
-58.7616 103.936 -92.1458 0 0 1 214 221 212
-50.3228 116.54 -92.5662 0 0 1 207 213 216
-44.4564 116.967 -92.7693 -0.168249 -0.35072 0.921242 114 131 90
-62.5858 110.236 -92.2296 0 0 1 196 199 196
-63.3926 110.218 -92.2489 0.952084 -0.297282 -0.0718319 183 186 180
-51.9165 111.865 -92.4389 0 0 1 200 208 211
-51.479 114.189 -92.6869 0.813783 -0.520539 -0.258451 189 195 201
-64.6568 122.455 -92.3899 0 0 1 193 196 196
-51.9063 110.704 -92.6179 0 0 1 185 191 197
-50.7895 106.606 -92.35 0 0 1 208 215 217
-49.2179 109.308 -92.5187 0 0 1 194 201 204
-53.7332 104.366 -92.2416 0.034028 0.277846 -0.960023 208 216 215
-55.7682 133.26 -92.7946 0 0 1 219 235 244
-67.9144 115.042 -92.314 0.711042 -0.294407 -0.638548 68 67 73
-65.9138 124.588 -92.404 0 0 1 196 198 192
-50.6563 124.03 -92.6676 0 0 1 205 213 215
-45.6606 102.47 -92.2172 0 0 1 204 211 214
-52.4399 120.244 -92.564 0 0 1 204 212 214
-47.2437 112.501 -92.64 0 0 1 194 199 203
-51.5021 119.437 -92.6503 0 0 1 204 212 214
-47.5978 112.909 -92.6312 -0.580157 -0.626033 0.521058 194 200 203
-57.1824 123.805 -92.5963 0 0 1 212 217 218
-64.4097 132.647 -92.6338 0 0 1 134 145 147
-59.6604 120.478 -92.5636 0 0 1 206 210 209
-48.3553 125.922 -92.8963 0 0 1 192 197 198
-49.4377 110.503 -92.5695 0.73992 -0.584787 0.332479 203 209 212
-49.2337 121.799 -92.7007 -0.182361 0.86347 0.470281 201 207 209
-55.7721 128.175 -92.7748 0 0 1 202 208 213
-59.4762 111.236 -92.2898 0 0 1 219 224 224
-52.5481 121.328 -92.6251 0 0 1 201 209 211
-50.468 115.721 -92.5298 0 0 1 206 213 215
-47.084 105.558 -92.4233 -0.237165 0.930262 -0.279939 205 212 214
-57.5764 109.251 -92.4535 0 0 1 212 218 218
-68.9231 112.259 -83.4696 0 0 1 20 25 19
-68.0409 110.154 -83.7882 0.0183202 0.130639 -0.991261 49 58 38
-64.1371 108.252 -92.2214 0.776825 -0.232338 -0.585288 172 173 157
-48.6283 133.172 -93.0135 0 0 1 196 204 205
-65.085 116.822 -92.4181 -0.306266 -0.892745 0.330465 191 198 192
-47.1881 118.811 -92.6906 0.184395 -0.842892 -0.505502 219 218 213
-46.0305 107.316 -92.5695 0 0 1 201 207 210
-54.7175 117.76 -92.5482 0 0 1 207 212 215
-64.2622 132.427 -92.5877 0 0 1 164 169 165
-45.7834 127.28 -92.8591 0 0 1 191 191 161
-45.9916 118.422 -92.6225 0 0 1 154 160 117
-49.5398 116.482 -92.6218 0 0 1 202 209 212
-48.8506 133.518 -92.9362 0 0 1 197 205 205
-63.2238 132.432 -92.6238 -0.22902 -0.262965 -0.937229 192 197 198
-51.3015 128.097 -92.781 0 0 1 202 210 212
-67.2257 126.306 -92.4212 0 0 1 128 135 137
-55.3055 123.569 -92.5342 0 0 1 207 213 215
-46.4338 110.517 -92.5171 0.991099 -0.000543286 -0.133126 193 198 201
-49.6876 133.741 -92.89 0 0 1 200 205 206
-69.2436 116.674 -85.35 0 0 1 74 92 52
-44.764 109.361 -92.5085 0 0 1 214 215 208
-44.1762 107.016 -92.4592 0 0 1 184 183 176
-68.101 112.877 -91.174 0 0 1 48 99 130
-53.3382 104.196 -92.348 0 0 1 206 212 213
-49.1194 116.834 -92.6212 0 0 1 201 208 211
-61.6873 129.146 -92.5962 0 0 1 200 205 208
-47.5069 111.584 -92.7315 0 0 1 168 173 171
-51.7222 117.558 -92.6045 0 0 1 208 215 218
-70.2442 112.513 -82.3396 0 0 1 95 89 68
-51.0728 103.552 -92.2959 -0.139841 0.987857 -0.067705 208 213 216
-47.604 103.284 -92.2701 0 0 1 202 210 212
-54.2141 103.178 -92.1556 0 0 1 211 218 220
-61.2188 128.07 -92.5351 0 0 1 179 182 181
-70.8043 121.533 -86.856 0 0 1 73 81 70
-45.2246 123.264 -92.8331 0 0 1 193 196 152
-53.4527 113.923 -92.6199 -0.172412 -0.951592 -0.254455 204 211 214
-47.2024 127.563 -92.8351 0.911822 -0.120826 0.392405 195 201 201
-61.6072 111.771 -92.3583 -0.368556 0.485125 0.792982 213 217 216
-69.845 116.228 -83.7254 0 0 1 156 185 125
-59.3104 131.324 -92.5732 0 0 1 176 179 178
-66.3835 118.552 -92.391 -0.129354 0.293006 -0.94732 197 201 199
-61.7112 107.817 -92.2326 -0.369913 0.0629757 -0.92693 197 200 197
-58.9181 114.664 -92.4311 0 0 1 214 221 220
-44.9354 110.33 -92.5088 -0.227353 0.495323 -0.83843 187 195 164
-70.4994 128.788 -84.3797 0 0 1 129 127 107
-63.4193 103.869 -91.678 0 0 1 33 83 124
-51.0996 106.792 -92.2817 0 0 1 206 214 216
-44.0249 127.612 -92.8613 0 0 1 186 196 151
-45.1723 116.01 -92.6841 0 0 1 103 147 75
-54.6006 131.639 -92.812 0 0 1 235 237 239
-65.6216 103.328 -84.6549 0 0 1 169 185 151
-65.0052 126.58 -92.5103 0 0 1 195 197 193
-48.6154 132.42 -92.7667 0 0 1 198 205 205
-68.8248 135.434 -94.3847 0 0 1 38 42 31
-51.2194 126.702 -92.696 0 0 1 202 209 211
-49.935 126.787 -92.7924 0 0 1 199 208 210
-57.6027 124.981 -92.5579 0 0 1 202 206 205
-65.4321 129.507 -92.5156 -0.148384 0.0569158 -0.987291 169 174 168
-65.7509 133.049 -91.7953 0 0 1 77 85 63
-45.8561 109.813 -92.5181 0 0 1 195 199 198
-67.5976 104.896 -81.4905 0.981043 0.0577358 -0.184987 133 146 99
-53.0334 118.78 -92.5855 0.556177 -0.232786 -0.797795 205 212 214
-69.3164 129.246 -91.9228 0 0 1 95 105 66
-60.5296 134.319 -92.6562 0 0 1 188 195 198
-44.1181 106.339 -92.4448 0 0 1 188 179 171
-71.8162 103.455 -90.6314 0 0 1 141 132 94
-52.6763 135.306 -92.8343 -0.590498 0.505671 -0.628974 196 202 209
-61.6885 122.198 -92.4671 0.67842 -0.66421 -0.313961 182 184 181
-44.3405 127.191 -92.8038 0 0 1 180 192 137
-54.476 130.438 -92.8209 0 0 1 195 203 208
-60.7055 107.361 -92.2353 0.86665 0.428285 -0.255911 205 210 208
-53.0906 130.665 -92.7441 0 0 1 204 211 213
-51.5829 134.243 -92.8084 0 0 1 199 207 213
-59.895 110.913 -92.2725 0.793307 -0.471723 -0.384891 223 229 229
-57.2986 124.584 -92.5425 0 0 1 221 221 217
-63.8192 129.844 -92.5658 -0.150059 -0.201522 -0.967921 196 201 201
-45.389 102.464 -92.3015 0 0 1 204 211 214
-55.5063 130.345 -92.7877 0 0 1 209 220 227
-70.0192 117.505 -84.7914 0 0 1 19 30 19
-59.2014 110.493 -92.3157 0.901474 -0.332311 0.277335 214 220 220
-51.0139 107.027 -92.3525 -0.364688 0.49484 -0.788756 205 212 214
-50.5451 107.651 -92.3251 0.26159 -0.227829 -0.937904 203 211 213
-58.7053 128.017 -92.5125 0 0 1 193 198 203
-63.9944 117.151 -92.3985 0 0 1 195 200 195
-59.4409 124.162 -92.4703 0 0 1 198 203 202
-64.3946 111.53 -92.3232 0 0 1 180 183 181
-51.7378 121.658 -92.5761 0 0 1 206 213 216
-61.3478 106.727 -92.2449 0 0 1 195 200 195
-49.0824 121.775 -92.6381 0 0 1 201 207 208
-50.8759 106.138 -92.3998 0.845393 0.520886 -0.118274 206 214 216
-63.5626 120.975 -92.4284 0 0 1 201 203 199
-68.4087 131.637 -91.9576 0 0 1 108 127 78
-44.9889 109.219 -92.5809 0 0 1 212 213 207
-72.4707 130.578 -93.3122 0 0 1 125 122 102
-63.1963 126.856 -92.5224 0.513871 -0.145317 -0.84547 193 198 197
-52.28 104.657 -92.2232 -0.551359 -0.145704 -0.821446 203 210 212
-61.991 108.511 -92.3492 0 0 1 198 200 197
-58.711 134.095 -92.687 0 0 1 197 198 200
-51.3887 110.497 -92.4432 0 0 1 201 209 211
-53.431 105.804 -92.4706 0 0 1 221 227 230
-67.732 134.635 -92.7949 0 0 1 95 105 63
-68.5568 133.065 -89.6635 0 0 1 141 167 127
-49.4207 121.673 -92.8108 0 0 1 191 199 201
-46.5837 111.335 -92.6359 0 0 1 192 198 201
-60.9291 110.971 -92.2318 0 0 1 211 216 216
-55.4431 108.551 -92.3162 0 0 1 216 222 223
-52.3234 104.637 -92.3646 0.850246 -0.514327 -0.112024 203 210 212
-48.0569 113.642 -92.5834 0.0666588 0.232831 -0.97023 192 200 202
-69.3467 107.486 -81.0813 0.124264 -0.0777499 -0.989198 133 122 85
-54.2997 117.722 -92.566 0 0 1 207 214 216
-51.2893 103.112 -92.2365 0 0 1 208 213 216
-55.9113 133.147 -92.7297 0.686818 -0.173317 -0.705862 201 233 248
-52.8513 112.621 -92.418 0 0 1 202 209 212
-70.6509 119.303 -85.287 0.997471 -0.0568855 -0.0426003 42 61 48
-61.2156 122.293 -92.4837 0 0 1 187 189 187
-66.7823 127.452 -92.5109 0 0 1 135 137 133
-54.4431 102.584 -92.305 -0.0615399 0.589496 -0.805424 212 220 219
-47.1975 130.863 -92.88 0.00182936 -0.277278 -0.960788 197 205 205
-68.4087 104.423 -82.469 0.820684 -0.436521 0.368682 0 0 0
-45.4954 120.188 -92.646 0 0 1 162 167 123
-67.564 125.102 -92.4142 0 0 1 157 150 140
-57.2773 112.325 -92.3063 0 0 1 209 215 216
-67.5579 105.598 -81.3325 0 0 1 155 165 115
-53.6113 132.792 -92.8341 0 0 1 195 201 208
-58.7828 113.42 -92.3601 0 0 1 211 216 218
-67.9887 111.745 -85.3791 -0.00161217 0.770231 0.637764 44 52 45
-49.1154 104.574 -92.3188 0 0 1 206 214 216
-46.1127 113.84 -92.6773 0.960766 0.277349 0.00261393 161 167 125
-70.7164 124.727 -92.0781 0 0 1 108 123 78
-70.9632 102.741 -88.6186 0 0 1 86 86 54
-51.7818 130.954 -92.7973 -0.25766 0.516843 -0.816385 205 213 215
-59.7253 103.415 -92.1843 0.394095 0.404085 -0.825472 197 200 197
-51.3817 131.324 -92.9102 0 0 1 202 210 210
-54.3325 106.912 -92.2407 0 0 1 208 213 215
-46.8858 129.362 -92.8584 0.0303472 -0.256268 -0.966129 195 201 202
-50.2499 108.464 -92.4758 0.90745 0.317543 -0.275139 200 209 211
-58.7995 112.761 -92.3554 0 0 1 217 225 226
-50.8768 108.353 -92.5053 0.541738 -0.0952437 0.835134 208 213 216
-57.4735 129.856 -92.6063 0 0 1 199 205 209
-54.1987 115.728 -92.7173 0 0 1 217 225 227
-52.6364 105.472 -92.5074 0.487099 -0.719381 -0.495202 0 0 0
-53.8212 108.103 -92.5313 0 0 1 203 209 211
-69.5404 108.292 -80.879 -0.350713 0.933167 0.078736 119 122 89
-48.68 119.617 -92.7793 0 0 1 195 201 202
-67.7707 122.961 -92.3993 0 0 1 166 166 160
-45.8114 105.916 -92.3861 0.829816 -0.557675 -0.020108 201 209 211
-54.8924 126.535 -92.7445 0 0 1 198 205 208
-62.5815 112.99 -92.3765 0 0 1 203 208 206
-58.79 106.283 -92.291 0 0 1 213 221 220
-56.5767 108.119 -92.318 0 0 1 214 221 222
-53.5997 120.039 -92.5252 0 0 1 199 206 208
-60.4753 126.328 -92.5309 0.641236 -0.665927 0.381258 175 178 178
-64.9749 113.384 -92.3378 0 0 1 188 191 186
-55.8692 103.176 -92.3145 0 0 1 208 214 215
-66.3614 131.549 -92.4452 0 0 1 38 46 36
-47.9961 106.543 -92.4346 0.9395 -0.0781512 -0.333514 200 208 211
-55.9396 113.387 -92.577 0 0 1 207 214 216
-55.0563 114.934 -92.6284 0 0 1 206 213 213
-46.0474 122.628 -92.7151 0 0 1 165 175 116
-50.02 110.516 -92.4561 0.992518 0.115704 0.0390059 193 201 204
-61.157 104.001 -92.1377 0.537545 -0.426376 -0.727495 187 190 182
-55.3927 108.415 -92.2635 0.794063 -0.25183 -0.553214 214 220 221
-53.4513 104.689 -92.2677 0.926876 -0.366057 0.0830795 207 214 213
-66.5644 129.395 -91.3934 0.123909 -0.565061 -0.815691 222 252 252
-47.5815 133.199 -92.9299 0 0 1 198 206 207
-53.4386 125.048 -92.7552 0 0 1 205 211 214
-53.1846 112.171 -92.5148 0 0 1 208 213 216
-65.7919 132.864 -91.8659 0 0 1 74 82 66
-54.2016 104.805 -92.2876 0 0 1 212 218 218
-60.0982 122.879 -92.5019 0 0 1 201 205 204
-55.4512 115.556 -92.5112 0.571352 -0.072325 0.817512 208 213 216
-52.6107 113.087 -92.5193 0 0 1 201 209 212
-48.6913 102.485 -92.2084 0.871346 -0.290755 -0.395244 206 212 215
-52.3844 123.962 -92.6964 0 0 1 203 210 213
-45.9406 127.431 -92.8476 0 0 1 200 204 195
-54.8815 107.431 -92.3028 0.803999 0.191309 -0.563016 211 217 218
-61.0385 133.751 -92.6261 0 0 1 188 196 199
-50.7643 103.57 -92.3304 0 0 1 206 212 215
-68.2835 130.46 -91.9402 0 0 1 144 154 103
-60.6799 115.537 -92.3854 0 0 1 214 218 218
-49.3711 109.781 -92.6264 0 0 1 155 157 164
-55.2553 104.575 -92.1994 0.812655 -0.121572 0.569922 212 219 219
-63.0714 109.456 -92.2523 0.691095 -0.277128 0.667524 184 188 183
-62.3925 134.686 -92.591 0 0 1 183 188 190
-70.2543 134.172 -90.8272 0 0 1 84 83 53
-61.2689 111.898 -92.2997 -0.323926 -0.548875 -0.770589 184 191 198
-63.8468 114.686 -92.3296 0.787198 -0.150145 -0.598144 199 201 199
-51.8443 104.133 -92.3751 0.597948 0.687825 0.411527 214 222 222
-50.8319 117.009 -92.548 0 0 1 205 211 214
-61.2629 132.553 -92.6118 0.144248 0.892245 -0.427892 189 195 199
-53.6458 123.287 -92.6098 -0.0923708 0.982178 -0.16369 205 211 214
-49.8302 128.159 -92.7992 0.0880569 0.977732 -0.190489 203 210 213
-58.2948 107.159 -92.2087 0 0 1 212 220 220
-56.532 107.358 -92.3048 -0.551012 -0.249448 0.796342 214 223 222
-50.0656 102.265 -92.3085 -0.00464396 0.306185 0.951961 207 214 217
-68.0951 118.733 -92.3515 -0.205329 -0.42478 -0.881704 156 155 147
-56.3362 109.326 -92.2762 0 0 1 216 223 222
-49.1289 128.976 -92.8608 -0.641054 -0.382953 -0.665129 199 208 209
-58.2766 125.503 -92.5947 0 0 1 207 212 213
-47.3124 124.979 -92.858 0 0 1 191 196 198
-63.5042 118.79 -92.4007 -0.10173 0.551409 -0.828009 157 162 167
-60.5862 116.46 -92.4103 0 0 1 213 217 217
-61.8997 126.599 -92.4974 -0.228173 0.21261 -0.950123 183 185 183
-45.1798 108.632 -92.4218 0 0 1 221 221 222
-70.4287 116.712 -83.6103 0.659765 -0.524087 -0.538557 127 150 101
-59.6593 113.691 -92.3392 0 0 1 212 218 217
-51.2422 131.701 -92.7954 0.469447 0.859626 -0.201649 201 209 210
-50.4478 112.626 -92.5402 0 0 1 196 204 207
-44.2886 107.325 -92.4223 0 0 1 187 190 184
-54.0264 131.166 -92.7294 0.579293 0.775191 0.251989 194 201 207
-59.6644 132.243 -92.611 0 0 1 199 202 205
-58.5473 114.147 -92.3547 0.708225 0.353138 -0.611319 213 219 220
-59.8089 103.465 -92.1434 0 0 1 197 200 197
-54.8774 122.611 -92.6359 0 0 1 207 212 215
-58.8638 129.795 -92.6598 0 0 1 175 178 179
-52.1388 106.726 -92.391 0.0972163 0.261765 -0.960223 206 215 217
-56.6936 109.186 -92.2788 0.581852 -0.675069 -0.453574 216 224 223
-58.6516 126.641 -92.5281 0 0 1 200 207 210
-45.5852 128.253 -92.8982 -0.258416 -0.210722 -0.942771 203 205 184
-65.9613 134.4 -92.3843 -0.529119 0.395679 -0.750647 87 100 57
-60.3951 131.009 -92.6266 0 0 1 200 204 208
-44.3467 129.576 -92.912 0 0 1 175 184 133
-44.5777 115.835 -92.6874 0.701232 -0.568756 0.429872 85 137 65
-58.1128 120.904 -92.4585 0 0 1 218 217 214
-51.1063 130.448 -92.7975 0.404696 -0.213141 -0.889265 205 212 214
-47.0037 135.131 -92.9021 0 0 1 199 207 209
-57.0583 129.163 -92.6839 0 0 1 195 201 206
-64.3829 130.913 -92.5341 0 0 1 181 186 189
-49.2289 104.458 -92.2815 0.80685 -0.227754 -0.545088 205 213 214
-52.568 120.53 -92.5798 0.865813 0.364765 -0.342511 203 210 212
-63.0296 135.026 -92.5972 0 0 1 164 167 165
-44.2509 131.753 -93.0448 0 0 1 203 202 187
-51.075 121.271 -92.6589 0 0 1 208 213 216
-70.6558 119.22 -85.2918 0.997471 -0.0568855 -0.0426003 50 72 59
-48.9597 129.093 -92.8195 0 0 1 201 210 211
-56.1885 117.298 -92.495 0.275351 0.795399 0.539928 208 213 216
-66.2524 130.179 -91.424 0 0 1 225 252 253
-55.3791 109.34 -92.2195 0 0 1 204 212 213
-68.6446 123.687 -91.6357 0 0 1 152 207 216
-66.0498 102.644 -91.8679 0 0 1 85 83 58
-67.5824 106.658 -81.4815 0 0 1 121 123 86
-48.8724 130.846 -92.8992 0 0 1 197 205 206
-47.924 107.236 -92.3939 0 0 1 200 210 211
-59.1477 105.575 -92.2676 0.0948606 -0.642879 -0.760071 202 211 212
-46.6417 106.677 -92.4096 0 0 1 203 210 212
-55.9915 116.012 -92.4573 0 0 1 209 215 218
-68.2818 105.754 -80.9491 0 0 1 151 159 108
-62.7913 112.306 -92.3935 0 0 1 194 198 195
-70.1362 114.492 -84.359 0 0 1 95 98 86
-46.4824 117.877 -92.5922 0 0 1 158 169 125
-56.7052 102.843 -92.1559 0.595069 -0.608343 0.525178 209 214 216
-59.6872 134.108 -92.6159 0 0 1 187 192 196
-49.815 103.114 -92.4374 0 0 1 220 228 230
-52.4923 123.254 -92.683 0 0 1 202 210 212
-61.2673 110.584 -92.2546 0 0 1 211 216 212
-67.8576 111.123 -85.1853 0 0 1 23 25 21
-52.3846 112.037 -92.4934 0 0 1 200 208 211
-64.4256 119.328 -92.3682 -0.493027 0.24294 0.835407 203 205 203
-48.5689 103.428 -92.4598 0 0 1 162 162 169
-53.8899 123.037 -92.6513 0.411469 0.0494624 -0.910081 204 211 213
-62.8379 128.472 -92.6276 -0.676018 0.717517 0.167837 191 196 197
-69.0557 133.436 -89.3481 0 0 1 52 68 48
-56.2889 108.565 -92.3304 0.937517 -0.225843 0.264684 218 224 224
-48.9732 102.115 -92.2342 0 0 1 207 213 216
-57.5419 116.197 -92.4719 -0.0274078 0.636318 -0.77094 213 218 219
-54.1442 109.804 -92.3984 0 0 1 202 208 210
-69.6116 124.909 -90.9376 0 0 1 106 117 96
-66.5379 129.919 -91.3859 0 0 1 231 252 253
-55.4879 130.765 -92.7642 0 0 1 198 224 232
-59.7995 105.794 -92.2514 0 0 1 207 217 213
-62.033 132.79 -92.6004 -0.210482 0.326591 -0.921431 193 200 204
-54.5813 103.546 -92.2358 0 0 1 211 219 219
-64.4449 110.283 -92.2884 0.691176 -0.578466 -0.43319 183 187 184
-52.8733 122.486 -92.756 0 0 1 203 210 212
-61.35 115.481 -92.3428 0 0 1 214 218 217
-47.3982 119.012 -92.7202 0.758285 -0.109293 0.642697 136 209 235
-61.5234 106.172 -92.2913 0 0 1 189 195 191
-57.3393 132.459 -92.7058 -0.413535 0.505458 -0.757299 199 242 254
-57.6305 105.394 -92.35 0 0 1 208 215 216
-57.7268 119.96 -92.4421 0 0 1 209 214 215
-52.9469 113.232 -92.5446 0.759236 0.354703 -0.545661 202 208 211
-47.4954 126.722 -92.775 0 0 1 188 193 196
-54.9907 105.103 -92.3733 0 0 1 210 215 215
-53.9713 132.972 -92.822 0.432025 0.900476 -0.0499799 208 221 229
-46.9472 110.736 -92.6861 0.931761 -0.3539 -0.0810881 180 185 184
-69.7551 104.346 -80.8688 0 0 1 155 169 112
-44.2266 132.438 -93.0373 0.339335 -0.819477 0.461854 198 204 202
-50.4415 105.412 -92.4226 -0.174777 -0.341897 -0.923342 205 210 211
-63.1444 116.174 -92.3683 -0.309235 0.933036 0.183896 198 201 198
-60.8395 117.414 -92.4992 0 0 1 212 217 215
-65.0809 128.27 -92.4651 0 0 1 192 194 193
-59.0936 108.071 -92.2128 0.141941 0.986326 0.0837504 214 222 221
-70.3996 120.336 -85.7214 0 0 1 114 139 119
-56.3119 131.422 -92.7279 0 0 1 196 203 208
-52.1935 114.663 -92.5042 0 0 1 205 213 216
-59.634 108.642 -92.196 0.112767 -0.71822 0.686617 215 220 221
-47.7108 112.861 -92.6455 0.91118 0.19855 0.361011 194 200 203
-47.1609 109.62 -92.5036 0.984113 -0.0896508 0.153249 193 201 203
-63.6747 115.619 -92.3539 0 0 1 192 193 189
-47.7803 105.055 -92.3165 -0.268759 0.585523 -0.764808 203 211 214
-60.8631 103.949 -92.1945 0 0 1 181 185 180
-53.7578 103.526 -92.1838 0.747219 0.0786918 0.659903 210 216 217
-70.279 121.68 -91.752 0 0 1 94 92 94
-51.9576 111.779 -92.5138 0.307468 -0.94768 0.0858251 200 207 210
-57.6393 103.005 -92.2091 -0.131393 -0.0377191 -0.990613 207 213 213
-47.071 110.556 -92.4208 0 0 1 193 201 204
-62.7349 130.722 -92.6167 0 0 1 191 197 202
-66.6155 122.957 -92.4108 0.152867 0.820725 -0.550493 189 192 189
-55.1119 128.491 -92.6556 0 0 1 198 204 206
-51.2258 116.453 -92.5007 0 0 1 212 217 220
-57.8218 135.501 -92.8106 0 0 1 198 199 202
-62.7083 104.312 -92.1267 0 0 1 156 157 147
-59.2812 116.693 -92.4149 0 0 1 215 220 220
-70.1728 120.857 -91.3063 0 0 1 112 156 176
-69.6374 108.386 -81.1265 0 0 1 132 143 98
-49.5942 104.06 -92.3736 0.723762 0.596269 0.34732 207 215 217
-53.8916 106.866 -92.394 0.241599 0.0286396 -0.969954 211 218 220
-54.1878 123.602 -92.6863 0 0 1 206 212 214
-49.5828 133.873 -92.8329 0 0 1 198 204 206
-60.0496 116.912 -92.4458 0.600419 -0.0777587 0.795896 215 220 220
-44.6432 125.671 -92.7811 -0.469357 -0.390751 -0.791844 191 194 151
-44.2348 135.154 -93.0598 0 0 1 191 199 201
-57.651 125.822 -92.6046 0 0 1 200 208 213
-48.0877 128.355 -92.8384 0.28944 -0.103928 -0.951538 198 206 207
-50.6158 102.297 -92.1956 -0.051033 -0.0845364 0.995113 207 214 216
-65.0162 134.726 -92.1034 0.264783 0.544351 -0.795972 76 83 58
-62.695 103.417 -92.1086 0 0 1 168 167 163
-64.7914 117.374 -92.424 0.286278 -0.771513 -0.568166 192 197 196
-45.0305 120.433 -92.6719 0 0 1 159 173 118
-50.8892 134.758 -92.8884 -0.286353 -0.27566 -0.917613 201 207 211
-53.3872 110.902 -92.3478 0 0 1 205 211 214
-59.3551 129.793 -92.6035 0.595005 0.799332 -0.0838888 175 176 182
-67.3443 105.746 -81.7151 0 0 1 60 64 35
-63.1188 133.846 -92.5588 0 0 1 180 185 186
-51.5392 134.845 -92.9081 0 0 1 197 205 209
-58.0442 119.238 -92.4378 0 0 1 210 213 213
-63.3137 126.613 -92.4286 0 0 1 190 195 194
-52.0807 112.184 -92.4904 0.228909 0.864833 -0.446839 201 208 211
-66.6026 115.422 -92.3467 0 0 1 171 173 166
-48.4064 121.194 -92.6969 0 0 1 195 204 203
-51.1139 104.955 -92.4177 -0.341461 0.554606 -0.758826 207 213 216
-49.3401 134.926 -92.9453 0 0 1 197 205 205
-67.4466 121.715 -92.3995 0 0 1 175 176 169
-67.0121 123.096 -92.4372 0 0 1 179 180 175
-47.6159 135.519 -92.8949 0 0 1 195 201 201
-49.7087 109.493 -92.3868 -0.700457 -0.0669091 -0.710551 196 201 205
-49.5179 129.001 -92.6926 0 0 1 197 205 207
-52.9956 128.221 -92.7734 0.0533935 0.250596 -0.966618 206 211 214
-64.5732 105.184 -91.1311 -0.301257 0.0331345 -0.952967 109 179 211
-54.6529 119.663 -92.5777 0.11849 -0.920736 -0.371759 198 206 208
-50.8298 121.231 -92.7683 0 0 1 202 208 210
-60.2139 123.886 -92.5706 0.490639 0.0235619 -0.871044 194 195 194
-55.1088 102.728 -92.2155 0.196964 -0.869733 0.452515 212 218 218
-54.6677 122.494 -92.605 0 0 1 204 210 213
-53.3497 110.863 -92.561 0 0 1 206 212 214
-57.9259 126.431 -92.5768 0 0 1 203 208 213
-61.0391 114.873 -92.295 0 0 1 215 221 219
-47.1817 130.762 -92.9826 0 0 1 198 205 205
-64.0985 103.306 -84.797 0 0 1 185 198 177
-53.8383 105.423 -92.2123 0 0 1 208 214 215
-46.8811 108.211 -92.5119 0.729289 -0.60481 0.31991 194 202 205
-57.2055 114.797 -92.6934 0 0 1 0 0 0
-45.4275 113.935 -92.6315 0 0 1 163 178 123
-59.9416 107.061 -92.229 0.433202 0.440324 0.786416 216 223 222
-61.056 117.438 -92.4634 0 0 1 212 216 214
-63.2064 135.017 -92.629 0.986502 -0.148823 0.0683074 162 166 169
-62.0112 112.021 -92.3091 0.0993666 0.926741 -0.362322 206 212 211
-59.8772 118.39 -92.4681 0 0 1 213 216 215
-48.1909 107.634 -92.4301 0 0 1 201 210 212
-44.7465 125.939 -92.8099 0 0 1 176 186 131
-52.4972 119.052 -92.5165 0 0 1 208 214 217
-57.8669 134.621 -92.6629 0 0 1 195 196 198
-59.9812 124.915 -92.5458 0.957565 0.255631 0.133122 195 196 195
-47.122 107.014 -92.4699 0 0 1 203 211 213
-46.5703 121.167 -92.6647 0 0 1 154 160 115
-51.3405 107.424 -92.4946 0.38841 0.546823 0.741702 206 212 215
-66.2174 122.192 -92.4225 0 0 1 198 201 198
-47.9774 122.227 -92.8283 0 0 1 191 197 199
-51.2471 119.199 -92.5489 0.552257 -0.753845 -0.35599 204 210 213
-49.2995 113.039 -92.5199 0.336602 0.492524 -0.80257 201 209 211
-49.2516 106.708 -92.497 0 0 1 203 208 209
-65.5405 130.965 -91.4294 0 0 1 202 208 206
-46.3557 131.576 -92.9236 0 0 1 191 198 198
-52.2284 106.168 -92.3732 -0.263899 0.934176 -0.240152 206 214 215
-68.7894 125.349 -91.3142 -0.0860488 0.444328 -0.891722 186 204 204
-69.4567 124.997 -92.2482 0 0 1 116 106 86
-52.636 102.84 -92.2546 0.117896 0.992993 0.00802536 204 211 211
-45.1627 132.802 -93.0659 0 0 1 155 154 159
-70.223 133.878 -88.6293 0 0 1 122 115 85
-44.3022 133.509 -93.023 0.0956694 0.520457 -0.848512 196 202 202
-70.8223 125.055 -85.4221 0 0 1 178 180 160
-62.8414 118.71 -92.4479 0.0574492 -0.425272 -0.90324 185 190 185
-53.1099 102.182 -92.143 -0.700881 0.619173 0.354106 212 219 220
-72.4411 130.018 -89.2807 0 0 1 77 84 60
-57.7857 131.617 -92.6593 0 0 1 209 213 219
-54.8528 124.131 -92.6278 0 0 1 207 213 215
-68.3813 134.604 -88.9528 0 0 1 147 138 93
-70.8213 117.49 -84.0554 0 0 1 32 49 33
-67.7511 117.48 -92.3182 0 0 1 141 142 135
-46.4406 109.631 -92.4863 0 0 1 193 197 200
-51.5493 104.016 -92.2552 0 0 1 205 212 215
-54.5067 116.96 -92.539 0.602648 -0.593297 0.53368 207 213 215
-61.1094 130.826 -92.5605 0 0 1 192 198 202
-69.3723 134.667 -88.5672 0 0 1 165 150 91
-71.4272 126.644 -85.998 0 0 1 107 110 78
-58.336 132.775 -92.6622 0 0 1 191 210 226
-64.5731 129.395 -92.5026 0 0 1 195 197 196
-54.6264 105.804 -92.2041 0 0 1 210 216 218
-47.4501 114.064 -92.617 0 0 1 189 192 197
-48.5417 103.068 -92.3674 0.918813 0.330374 -0.215953 208 215 218
-54.1496 103.855 -92.1739 0 0 1 208 217 217
-60.1532 123.985 -92.5436 0.61108 -0.108619 0.784081 194 196 195
-58.6834 116.479 -92.4782 -0.471054 0.877918 -0.0858402 212 217 218
-65.2074 117.416 -92.42 0 0 1 191 193 188
-55.7439 108.373 -92.3217 0.729562 0.661411 -0.173994 217 223 223
-56.6799 126.896 -92.5615 0.951392 -0.228138 -0.206896 206 212 215
-57.58 108.182 -92.4064 0 0 1 213 220 220
-50.1039 132.455 -92.8528 0.713622 0.396556 -0.577484 200 208 210
-52.2746 105.993 -92.3682 0.895663 0.301867 -0.326595 206 215 214
-60.9628 114.781 -92.3463 0 0 1 215 220 219
-50.8986 106.981 -92.5098 0 0 1 158 162 171
-58.5342 103.43 -92.1823 -0.100101 0.686105 0.720583 204 209 209
-60.6026 114.301 -92.4021 0 0 1 217 222 222
-70.323 124.617 -91.3253 0 0 1 131 140 102
-54.0623 104.063 -92.3033 0.653929 0.753974 0.062447 210 219 218
-66.8129 129.636 -91.4293 0 0 1 201 226 232
-65.7982 124.795 -92.4529 0 0 1 192 195 193
-44.389 109.575 -92.6321 0 0 1 205 206 198
-50.6482 110.533 -92.4562 0.773929 0.260661 0.577139 194 202 205
-69.8636 106.834 -80.5964 0 0 1 102 100 65
-48.5502 113.851 -92.5703 -0.363776 0.0562105 -0.929789 200 208 208
-58.0057 131.003 -92.6618 0 0 1 202 206 208
-45.2896 108.037 -92.5399 0.864016 0.284366 -0.415467 196 194 197
-48.6009 126.381 -92.8066 0 0 1 193 198 200
-45.4989 108.977 -92.5695 -0.191313 0.10363 -0.976043 202 204 206
-49.4344 126.841 -92.7641 0 0 1 209 215 217
-70.117 115.203 -89.6285 0 0 1 30 45 29
-60.2753 110.625 -92.3097 0 0 1 222 228 227
-64.3932 133.03 -92.2325 0 0 1 148 185 199
-44.2926 106.311 -92.4046 0 0 1 219 215 209
-49.2609 110.525 -92.4728 -0.30077 0.939964 -0.161261 196 204 207
-63.1115 113.53 -92.3145 -0.0925747 0.947939 -0.304699 194 199 195
-67.8209 118.179 -92.3719 -0.0617019 -0.318361 -0.945959 163 165 164
-52.0668 130.94 -92.6869 0 0 1 206 213 216
-49.4788 110.413 -92.5524 0.727615 0.196554 0.657224 193 200 204
-54.8097 124.447 -92.6722 0 0 1 206 212 214
-57.6277 118.801 -92.6013 0 0 1 207 213 214
-60.3759 104.905 -92.2485 0 0 1 200 203 199
-70.0744 113.542 -84.3117 0 0 1 30 32 26
-61.0793 134.724 -92.7137 0 0 1 191 199 202
-49.5842 107.866 -92.6169 0.00397992 -0.197083 -0.980379 153 159 165
-64.4297 132.363 -92.6479 0 0 1 125 127 127
-54.132 111.704 -92.4427 -0.059555 0.671968 0.738182 206 213 215
-70.2743 112.536 -82.5404 0 0 1 48 43 33
-55.5602 106.324 -92.382 0 0 1 210 215 215
-63.8815 121.755 -92.4229 0 0 1 196 199 198
-66.4706 126.141 -92.4616 0 0 1 172 176 169
-54.2799 110.816 -92.3858 0 0 1 206 213 213
-60.108 130.15 -92.5933 0 0 1 175 178 179
-68.7432 109.019 -81.3328 0 0 1 120 137 102
-48.8422 128.995 -92.8575 0 0 1 201 210 210
-48.1598 105.918 -92.3534 0.68779 -0.342267 0.640155 201 209 211
-63.8327 126.124 -92.5306 0 0 1 190 192 191
-45.4385 112.624 -92.6001 0.156481 0.0282127 -0.987278 164 168 122
-53.8976 127.588 -92.6689 -0.0499954 -0.0566643 -0.997141 205 210 213
-49.6859 105.157 -92.3838 0.137391 -0.615826 -0.775811 205 212 215
-69.5424 115.689 -88.684 0 0 1 46 60 51
-56.0864 126.295 -92.6719 -0.23761 -0.428097 -0.871937 201 206 208
-50.1877 122.569 -92.7294 0 0 1 206 214 216
-56.7431 108.207 -92.2536 0 0 1 213 220 221
-51.7514 111.949 -92.4896 0.0966998 -0.703721 -0.703865 200 209 211
-46.7536 106.716 -92.387 -0.43896 0.837656 -0.325032 203 210 212
-69.4708 134.368 -88.5939 0 0 1 151 151 98
-60.476 129.131 -92.5177 0 0 1 184 188 189
-53.2105 101.981 -92.255 -0.39358 -0.879407 0.267841 215 221 222
-53.8386 104.152 -92.3182 0 0 1 209 217 217
-46.6147 115.112 -92.5591 0 0 1 160 163 125
-68.9324 126.601 -91.1311 0 0 1 138 158 87
-63.0954 117.965 -92.4048 0 0 1 193 190 191
-71.3083 134.019 -88.3357 0 0 1 143 138 95
-47.7265 114.14 -92.6443 0 0 1 186 191 196
-64.2139 117.594 -92.4161 0 0 1 207 210 206
-51.8031 135.539 -92.7749 0 0 1 198 204 209
-65.0359 117.316 -92.3558 0.345001 -0.397923 -0.850078 190 193 189
-51.5604 122.18 -92.53 0 0 1 207 215 217
-61.7814 105.374 -92.1339 0 0 1 174 180 173
-64.1074 111.659 -92.3058 0 0 1 179 183 181
-44.2963 113.176 -92.6112 0.111954 -0.550278 -0.827442 160 158 120
-64.3359 128.443 -92.4181 0 0 1 195 199 197
-56.4301 113.717 -92.2975 0 0 1 208 214 216
-60.9032 135.448 -92.7121 0 0 1 193 199 203
-52.3779 123.222 -92.7202 -0.326006 0.931167 -0.163241 202 210 212
-44.1686 130.75 -92.9678 0 0 1 170 168 124
-68.2933 106.304 -81.2093 0 0 1 113 114 95
-54.3475 124.654 -92.6675 0.0960938 0.767771 0.633478 205 212 214
-49.3537 106.405 -92.3108 -0.274164 0.798868 0.535391 206 212 215
-61.4735 102.713 -92.2174 0 0 1 190 187 184
-47.7725 135.228 -92.9387 0 0 1 195 202 201
-71.7264 103.011 -88.4369 0 0 1 28 29 24
-53.121 115.108 -92.767 0 0 1 190 196 199
-70.1306 117.802 -84.5156 0 0 1 47 68 47
-57.5487 103.002 -92.221 -0.0276388 -0.312007 -0.949678 207 213 213
-44.9041 125.44 -92.7643 0 0 1 183 188 142
-67.0187 135.362 -92.1859 0 0 1 87 98 63
-56.3028 110.742 -92.531 0 0 1 205 210 213
-50.856 111.104 -92.582 0.96314 0.0853365 0.255107 203 210 213
-51.0046 134.65 -92.938 0 0 1 199 207 212
-53.8378 105.246 -92.2494 0 0 1 211 216 217
-67.7821 103.511 -83.1539 -0.468863 0.114502 -0.875818 145 153 100
-65.7394 120.285 -92.3535 0 0 1 201 204 200
-47.9022 123.905 -92.7956 0 0 1 192 196 198
-55.4526 135.211 -92.8246 0 0 1 221 239 251
-51.57 125.194 -92.8178 0 0 1 205 211 213
-62.6948 134.04 -92.6114 0 0 1 186 191 193
-72.0559 124.605 -88.8279 0 0 1 59 65 47
-58.9634 122.039 -92.4868 0 0 1 206 210 210
-45.0211 120.977 -92.7821 0 0 1 161 176 126
-63.3577 111.068 -92.2724 0 0 1 190 194 190
-67.3977 128.267 -91.3332 -0.228516 0.249476 -0.941033 175 191 203
-66.9607 130.708 -92.3607 0.733467 0.674181 0.0866403 47 59 42
-70.1112 126.1 -92.1927 0 0 1 122 128 89
-62.3938 105.357 -92.1835 0 0 1 152 155 148
-64.8172 111.599 -92.3127 0.91102 0.0566292 0.408454 187 190 187
-51.007 105.415 -92.3136 0 0 1 206 214 216
-60.8348 116.4 -92.4115 -0.193503 0.788541 0.583747 212 216 216
-44.3304 102.15 -92.1942 0 0 1 202 211 213
-53.6354 123.119 -92.6794 0 0 1 205 211 214
-51.9396 129.673 -92.8047 0 0 1 206 213 215
-47.002 123.379 -92.8647 0 0 1 194 204 205
-60.6228 102.755 -92.189 0 0 1 189 192 189
-67.7111 105.088 -81.5266 0 0 1 115 122 81
-72.8559 122.964 -92.6409 0 0 1 22 25 20
-63.0166 133.139 -92.6445 0 0 1 191 196 196
-71.5069 130.03 -93.8329 0 0 1 60 58 43
-64.4277 103.328 -84.5312 0 0 1 171 183 158
-50.7391 113.165 -92.542 0.595011 0.286004 -0.751108 199 206 209
-57.9806 103.655 -92.1245 0 0 1 208 213 214
-56.4462 114.494 -92.3704 0 0 1 207 212 215
-65.2896 122.578 -92.5237 0 0 1 202 204 197
-46.954 109.618 -92.4654 0 0 1 193 200 203
-49.4962 120.706 -92.7914 0 0 1 199 207 208
-54.4208 128.95 -92.6665 0 0 1 201 206 209
-57.9488 134.328 -92.648 0.00612809 -0.490312 -0.871525 196 198 202
-70.3988 131.627 -91.8356 0 0 1 137 156 102
-55.4129 119.384 -92.5475 -0.497767 0.356585 -0.790617 201 206 209
-58.3864 108.408 -92.2589 0 0 1 213 219 220
-65.2213 119.336 -92.3662 0 0 1 196 201 201
-67.1861 120.925 -92.4963 0 0 1 183 183 178
-71.7982 121.818 -90.0788 0 0 1 40 46 34
-52.994 106.335 -92.2236 -0.075064 0.149325 0.985935 205 212 214
-63.4487 133.637 -92.5584 0 0 1 175 181 179
-54.0574 108.845 -92.4213 0 0 1 206 211 214
-50.6711 119.768 -92.6841 0 0 1 204 212 214
-60.3367 128.827 -92.6414 0 0 1 200 202 203
-51.6095 103.189 -92.2807 0 0 1 206 213 214
-48.0199 129.874 -92.8442 0 0 1 198 205 206
-47.7776 133.303 -92.852 0 0 1 198 206 206
-70.6133 116.141 -83.5714 0 0 1 117 144 98
-46.8448 113.527 -92.5994 0 0 1 206 214 202
-60.0943 103.342 -92.1715 0.0761922 0.355914 -0.931408 200 204 201
-53.4099 102.244 -92.1977 0 0 1 214 221 222
-49.2316 132.605 -92.8748 0 0 1 200 206 206
-70.4312 128.637 -92.4829 0 0 1 100 102 73
-58.3063 110.125 -92.4356 0 0 1 214 222 221
-63.2222 107.306 -92.2642 0 0 1 178 183 181
-53.2882 102.782 -92.2732 0.6308 -0.746001 0.213479 211 217 218
-52.1655 104.604 -92.2821 0 0 1 205 212 213
-68.9132 107.602 -80.8666 0 0 1 155 157 116
-68.0767 117.096 -92.388 0 0 1 142 140 130
-69.7021 134.378 -88.6559 0 0 1 147 145 86
-47.0764 113.858 -92.7017 0.666939 -0.553727 -0.498577 204 207 212
-65.488 109.612 -92.2811 0 0 1 154 158 153
-45.1323 105.423 -92.3285 0.388495 -0.22981 0.892333 201 207 209
-65.7957 121.575 -92.4033 0 0 1 201 204 201
-64.7541 131.593 -92.5984 0 0 1 150 151 153
-63.0309 112.556 -92.334 -0.544511 0.572042 0.613413 192 195 192
-44.6379 132.937 -93.0102 0 0 1 191 197 197
-70.9249 134.376 -88.7264 0 0 1 111 111 68
-56.2532 106.782 -92.2857 0 0 1 212 218 220
-62.3108 116.948 -92.4078 0.433684 -0.101594 -0.895319 201 205 202
-49.6169 114.805 -92.5814 0 0 1 203 209 212
-60.5095 114.946 -92.3591 -0.478946 -0.430799 -0.764868 213 217 218
-69.8077 116.726 -83.5887 0.0223395 0.506299 -0.862069 113 148 98
-70.4381 114.152 -84.3793 0 0 1 28 30 23
-50.473 102.655 -92.3042 0 0 1 207 213 216
-70.0696 110.4 -81.2579 0 0 1 67 73 51
-63.1364 117.09 -92.3797 0 0 1 189 192 188
-44.3034 118.943 -92.7405 0.532478 0.713206 -0.455855 157 162 122
-52.8554 110.991 -92.4469 0 0 1 205 211 214
-59.3706 111.203 -92.3036 0 0 1 214 221 221
-59.9554 124.834 -92.5398 0.912486 0.308042 -0.269221 195 196 195
-67.2078 130.305 -92.0616 0 0 1 107 114 79
-59.6229 104.871 -92.1538 0 0 1 208 212 212
-45.6308 106.735 -92.5126 0 0 1 201 208 210
-46.1153 114.371 -92.5316 0 0 1 166 172 129
-66.5605 129.065 -91.3742 0 0 1 214 244 244
-52.69 102.155 -92.2707 0 0 1 209 214 216
-64.1486 113.972 -92.329 0.329084 0.545497 -0.770802 194 197 194
-64.789 108.829 -92.2156 0.942459 -0.301985 -0.143442 151 151 145
-68.4465 113.869 -91.18 0 0 1 79 158 171
-50.5957 102.933 -92.1694 0 0 1 206 214 216
-48.4502 102.269 -92.3591 0 0 1 176 183 180
-61.0891 107.1 -92.304 0 0 1 198 203 200
-60.3623 105.561 -92.28 -0.554314 -0.508147 0.659183 199 204 204
-58.7673 121.696 -92.4227 0 0 1 205 210 210
-70.1022 114.453 -84.3429 0.774067 0.623682 -0.108813 58 57 48
-54.9875 116.136 -92.4736 0 0 1 208 213 216
-45.9725 102.236 -92.2811 0.321559 0.855419 0.406027 204 212 214
-61.8098 120.259 -92.4931 0 0 1 187 190 188
-61.9946 112.005 -92.346 0.0993666 0.926741 -0.362322 206 212 211
-56.8469 123.318 -92.581 0 0 1 207 212 212
-63.2839 104.99 -92.1235 0 0 1 155 155 152
-46.6038 114.344 -92.7122 0.549598 -0.574847 -0.606212 176 177 143
-49.8505 104.037 -92.209 0 0 1 209 215 217
-54.1677 111.575 -92.6069 0 0 1 204 210 213
-47.9292 118.427 -92.6737 0.282296 -0.2948 -0.912909 230 230 233
-48.5084 111.733 -92.4645 0 0 1 191 198 201
-65.5089 129.639 -92.5081 0 0 1 173 179 175
-64.128 106.388 -92.1965 0 0 1 153 154 146
-51.6484 114.198 -92.5594 0 0 1 204 211 214
-44.7638 117.752 -92.6372 0 0 1 141 153 111
-45.0093 123.678 -92.7063 0 0 1 206 205 161
-67.2966 124.563 -92.39 -0.0646854 0.98498 -0.160096 163 165 159
-46.1442 118.808 -92.6099 0 0 1 161 168 120
-68.0912 133.11 -89.9122 0 0 1 149 178 135
-62.3861 129.863 -92.5394 0 0 1 191 197 201
-52.6576 119.85 -92.5896 0 0 1 203 210 213
-70.9503 123.278 -86.2892 0 0 1 174 195 194
-53.1464 105.265 -92.2566 0 0 1 203 211 212
-54.6323 121.998 -92.5695 0 0 1 205 212 214
-71.0498 131.992 -91.9778 0 0 1 76 92 60
-62.0776 130.816 -92.5964 0 0 1 191 198 201
-65.0547 106.202 -91.0477 0 0 1 116 201 224
-54.2976 130.157 -92.7116 0 0 1 199 205 210
-63.3666 110.136 -92.3221 -0.321894 0.0607796 -0.944823 177 182 181
-46.482 112.855 -92.513 0 0 1 194 193 184
-60.692 119.57 -92.4639 0 0 1 202 205 204
-58.8366 120.513 -92.3657 0 0 1 202 207 208
-59.6293 117.95 -92.4188 0 0 1 213 218 217
-67.2387 105.184 -81.5038 0 0 1 140 141 109
-60.8705 127.111 -92.5245 0 0 1 191 189 188
-57.3169 111.484 -92.435 0 0 1 216 223 223
-46.6986 118.787 -92.6815 0 0 1 152 154 117
-52.6141 114.663 -92.5675 0 0 1 204 213 215
-52.9417 108.884 -92.4364 -0.437175 0.895324 0.0852751 207 213 216
-66.9681 109.853 -91.1075 0 0 1 84 124 108
-49.9457 109.267 -92.385 -0.0625011 -0.156018 -0.985775 202 210 212
-50.4466 118.936 -92.7046 0 0 1 205 210 213
-47.5581 130.041 -92.8896 0 0 1 197 205 207
-46.1999 127.846 -92.9083 0 0 1 183 188 189
-58.3532 111.987 -92.5602 0 0 1 0 0 0
-57.7788 105.856 -92.2918 0 0 1 211 220 219
-52.5906 112.645 -92.5182 0 0 1 202 208 211
-46.071 121.907 -92.808 0 0 1 172 178 125
-67.9969 133.973 -90.3373 0.797092 -0.54596 0.258015 149 147 108
-69.4583 105.767 -81.0136 0 0 1 140 137 104
-56.3846 107.774 -92.2417 0 0 1 213 222 222
-56.5778 108.083 -92.4417 0 0 1 206 212 212
-58.8538 112.558 -92.3545 0.79378 0.141486 0.591519 219 225 226
-67.81 135.226 -90.964 0 0 1 117 113 73
-54.9263 102.334 -92.1707 0.0813353 -0.400081 -0.912863 213 218 219
-58.4553 124.403 -92.5938 0 0 1 208 211 212
-50.1461 102.246 -92.295 0.559004 -0.636336 -0.531594 205 213 215
-53.7039 114.987 -92.5032 0 0 1 206 212 215
-56.0573 129.004 -92.6511 0 0 1 203 208 212
-48.8161 111.188 -92.3845 0 0 1 194 202 205
-47.8449 106.639 -92.3262 0 0 1 199 208 211
-55.2206 112.648 -92.4743 0 0 1 206 213 215
-57.2201 103.055 -92.2537 0 0 1 206 213 214
-55.5345 123.475 -92.5513 0 0 1 205 212 212
-66.7505 103.414 -83.9133 0 0 1 106 112 77
-58.1735 107.894 -92.282 0.068344 0.880941 0.468266 210 218 218
-61.2226 112.297 -92.3514 0 0 1 210 217 218
-65.6678 114.298 -92.3616 0 0 1 193 197 192
-70.9292 121.371 -91.1763 0 0 1 44 55 42
-52.6718 115.204 -92.6137 0 0 1 172 177 180
-52.4342 129.893 -92.7398 0 0 1 207 213 215
-69.4513 120.897 -92.0036 0 0 1 143 157 149
-65.1957 107.389 -91.902 0 0 1 38 76 90
-45.9982 129.63 -92.8951 0.683466 -0.375749 0.625849 192 198 198
-57.6765 112.681 -92.4885 0 0 1 211 215 218
-53.0463 131.855 -92.7398 -0.450319 0.853362 0.26265 195 203 209
-70.8724 103.219 -90.1011 0 0 1 57 50 30
-68.4611 115.53 -92.2724 -0.289613 -0.531697 -0.795879 74 76 81
-64.0501 130.213 -92.6287 0 0 1 195 200 200
-64.2525 104.893 -91.1029 0 0 1 89 188 205
-45.9781 114.654 -92.6366 0 0 1 172 178 136
-62.6877 134.738 -92.6537 0.800327 -0.0507464 -0.597413 175 181 184
-56.6446 104.119 -92.2167 0 0 1 215 222 223
-70.418 117.828 -84.3385 0.918196 0.394246 0.038543 70 85 59
-51.4575 102.445 -92.3375 0 0 1 207 214 214
-70.0697 120.434 -87.382 0 0 1 22 30 26
-69.2622 110.539 -81.6545 0 0 1 156 151 111
-48.5515 103.854 -92.4075 0.529676 -0.508172 -0.679121 207 215 217
-53.3709 121.178 -92.6835 0 0 1 202 209 211
-45.5986 124.114 -92.78 -0.73172 0.408855 -0.545366 173 185 125
-71.199 126.365 -85.8727 0 0 1 158 169 114
-53.6404 125.08 -92.7979 0 0 1 205 211 214
-60.9517 113.543 -92.3815 0 0 1 221 226 225
-52.8369 104.333 -92.2119 -0.433852 0.278806 -0.856761 199 206 208
-51.8473 127.732 -92.7411 0 0 1 204 211 213
-45.9871 113.155 -92.6086 0 0 1 149 161 107
-69.2155 117.826 -91.6546 0 0 1 84 86 100
-69.118 135.121 -89.2364 0 0 1 72 70 41
-55.364 131.057 -92.7031 0.703809 -0.602116 0.376975 198 233 249
-64.4591 135.215 -91.8889 0 0 1 96 104 112
-62.9217 103.144 -85.8566 0 0 1 185 209 179
-47.5048 111.881 -92.5252 0 0 1 191 200 203
-49.0221 130.078 -92.8572 0 0 1 196 204 205
-54.6895 108.268 -92.3247 0.991859 0.104235 0.073145 205 211 213
-56.1427 111.747 -92.384 0 0 1 200 206 208
-70.0792 115.089 -84.4818 0 0 1 134 151 143
-72.9896 123.53 -92.8406 0 0 1 43 57 38
-52.8823 102.849 -92.1367 -0.038751 -0.198023 -0.979431 209 214 215
-64.2845 132.845 -92.5251 0 0 1 134 141 141
-60.0683 106.177 -92.2387 0.754075 -0.420275 -0.504717 205 211 210
-70.2125 123.667 -91.4626 0 0 1 109 106 85
-70.0435 111.083 -81.4233 0 0 1 97 101 69
-51.3849 109.725 -92.3942 0 0 1 203 211 213
-62.727 124.518 -92.4678 0.777367 -0.401557 -0.484202 185 189 190
-60.7783 102.493 -92.163 -0.0228844 0.505614 -0.862456 186 191 185
-56.2395 109.92 -92.2554 0 0 1 214 219 220
-68.1534 104.222 -83.2877 0 0 1 102 108 55
-54.545 112.45 -92.362 0.783257 -0.139269 -0.605898 205 213 215
-48.7074 107.014 -92.478 0 0 1 200 208 210
-46.96 122.367 -92.7906 0 0 1 253 254 253
-64.1232 134.177 -91.5271 0 0 1 232 249 251
-60.3353 107.142 -92.291 0 0 1 206 213 210
-49.8595 105.741 -92.2918 -0.497392 -0.365563 0.786744 207 213 216
-60.4955 119.549 -92.4729 0.436662 -0.579107 -0.688448 206 210 209
-49.7336 104.939 -92.4523 -0.0739686 0.854022 0.514951 197 205 208
-48.9908 114.804 -92.593 -0.495391 0.854309 -0.1573 190 197 199
-69.5661 117.429 -91.2269 0 0 1 26 63 91
-59.0953 106.13 -92.2836 0.734945 0.153768 0.660463 213 219 218
-50.1522 108.441 -92.549 0.387496 -0.410839 -0.825263 202 211 213
-48.4444 104.002 -92.2995 0.850191 -0.502993 -0.155482 205 213 215
-63.3545 110.565 -92.2913 0.162255 0.948938 0.270537 186 189 184
-48.0494 103.09 -92.2214 0.707627 -0.246041 0.662366 204 213 215
-50.7139 124.649 -92.7626 0 0 1 204 211 214
-55.8785 135.392 -92.7875 0.417556 0.908096 -0.0317672 198 238 253
-61.188 129.444 -92.61 0 0 1 199 205 209
-46.5597 114.605 -92.7139 -0.575395 0.817808 -0.0104779 159 163 120
-60.7478 108.524 -92.3309 0 0 1 207 212 211
-57.2282 124.943 -92.6 0 0 1 222 223 216
-54.2913 135.37 -92.8366 0 0 1 204 236 249
-54.2345 109.099 -92.2872 0.884357 -0.121359 0.450761 201 208 209
-50.3171 120.705 -92.6816 0 0 1 206 212 213
-55.8287 117.805 -92.575 0 0 1 209 216 218
-53.2959 104.926 -92.2889 0.620029 -0.762403 0.185218 201 208 210
-51.549 131.016 -92.8296 0 0 1 202 211 210
-56.0509 131.157 -92.7047 0 0 1 198 206 212
-68.4662 113.569 -85.3325 0 0 1 145 165 154
-60.7808 132.869 -92.6375 0 0 1 188 195 199
-54.1906 105.259 -92.242 0.449733 0.892741 0.0274593 213 218 219
-55.3594 102.085 -92.2489 -0.48597 0.245107 -0.838902 210 217 217
-57.3442 110.337 -92.3387 0 0 1 215 222 223
-52.2452 134.162 -92.6852 0 0 1 196 204 209
-46.6972 120.704 -92.675 0 0 1 156 159 118
-60.7876 135.016 -92.6699 0 0 1 189 196 199
-51.7727 105.244 -92.4705 0 0 1 159 162 169
-51.0694 119.881 -92.6104 0 0 1 204 210 213
-50.58 126.799 -92.7451 0 0 1 197 206 208
-53.0762 109.147 -92.376 0 0 1 206 214 216
-45.2269 115.115 -92.5676 0.911449 0.0132041 0.411201 148 165 114
-69.3742 130.885 -92.8739 0 0 1 37 47 30
-68.0444 132.509 -90.4245 0 0 1 127 140 106
-48.6038 111.593 -92.5212 -0.279095 -0.417733 -0.864641 193 198 202
-66.7531 103.618 -84.0316 0 0 1 119 122 88
-47.3869 106.789 -92.2947 0.701889 0.668769 -0.245153 202 210 213
-65.709 111.244 -92.277 0 0 1 88 93 98
-57.3765 124.503 -92.5037 0 0 1 221 221 217
-64.4002 111.214 -92.3071 -0.0386709 -0.183369 -0.982283 185 188 186
-53.5063 130.596 -92.6933 0 0 1 201 208 211
-46.0436 116.94 -92.7003 0 0 1 172 183 130
-61.4289 123.895 -92.5407 0 0 1 191 191 188
-57.8733 130.243 -92.6281 0 0 1 202 208 212
-46.4776 129.104 -92.9054 0 0 1 194 199 199
-60.5188 112.685 -92.4112 0 0 1 221 225 224
-64.0178 104.481 -91.0456 0 0 1 108 187 212
-65.7412 130.074 -92.4556 0 0 1 160 171 173
-47.7078 127.682 -92.8207 0 0 1 198 204 203
-46.5851 109.149 -92.3234 0 0 1 194 199 202
