ply
format ascii 1.0
comment Created by Open3D
element vertex 1101
property double x
property double y
property double z
property double nx
property double ny
property double nz
property uchar red
property uchar green
property uchar blue
end_header
-53.5532 120.399 -92.5605 0 0 1 199 208 210
-49.307 102.343 -92.4218 0 0 1 162 164 167
-56.3786 115.82 -92.5053 0 0 1 210 215 218
-45.6737 128.085 -92.8542 0 0 1 193 196 185
-58.7396 127.147 -92.6014 0 0 1 197 201 206
-47.5701 110.05 -92.4503 0 0 1 194 202 204
-64.2621 132.006 -92.6126 0 0 1 171 178 175
-59.0073 123.389 -92.4864 0 0 1 210 214 214
-52.9888 108.621 -92.4859 0 0 1 207 214 217
-49.2758 126.417 -92.7221 0 0 1 202 209 211
-61.4104 126.072 -92.4912 0 0 1 200 198 196
-45.6645 131.46 -92.9138 0 0 1 189 195 195
-69.8744 113.443 -84.3362 0 0 1 34 35 26
-70.8622 124.201 -90.4771 0 0 1 120 134 96
-52.0294 105.939 -92.2869 0 0 1 208 214 217
-62.5201 106.825 -92.2342 0 0 1 178 180 177
-61.8565 126.013 -92.554 0 0 1 196 199 199
-61.3546 132.432 -92.5493 0 0 1 189 195 199
-54.2385 111.877 -92.5372 0 0 1 205 211 211
-48.8885 121.852 -92.7094 0 0 1 201 208 208
-51.5437 109.611 -92.5374 0 0 1 207 213 216
-51.9829 102.497 -92.3781 0 0 1 161 162 168
-68.9374 123.019 -91.6194 0 0 1 206 228 239
-48.9846 107.423 -92.4289 0 0 1 201 207 210
-45.3145 134.702 -93.0206 0 0 1 194 200 201
-44.053 111.322 -92.6635 0 0 1 185 191 160
-57.441 134.906 -92.7115 0 0 1 203 209 211
-52.0737 112.433 -92.5032 0 0 1 201 209 211
-58.8794 107.793 -92.25 0 0 1 212 219 219
-62.2549 125.416 -92.477 0 0 1 172 171 174
-67.6958 125.934 -92.1011 0 0 1 148 191 196
-62.7323 117.292 -92.3989 0 0 1 191 194 190
-50.8761 121.199 -92.5734 0 0 1 205 210 213
-69.2699 111.195 -82.2889 0 0 1 47 48 34
-67.4166 134.781 -92.6319 0 0 1 56 57 38
-57.9337 120.926 -92.5121 0 0 1 218 217 214
-62.6167 114.503 -92.3461 0 0 1 216 221 219
-50.738 112.592 -92.7057 0 0 1 159 165 163
-68.0082 121.213 -92.4618 0 0 1 160 159 153
-69.7725 111.507 -82.4868 0 0 1 37 38 27
-60.9822 126.413 -92.5938 0 0 1 180 180 177
-44.5613 113.463 -92.5556 0 0 1 145 148 104
-62.453 126.447 -92.4702 0 0 1 198 200 196
-65.712 106.762 -83.4639 0 0 1 65 72 50
-65.8372 130 -92.0969 0 0 1 169 207 212
-51.9732 110.735 -92.408 0 0 1 203 210 213
-58.1011 132.21 -92.6777 0 0 1 190 243 252
-46.4041 122.927 -92.7378 0 0 1 151 171 118
-52.5061 102.573 -92.2988 0 0 1 206 211 212
-69.9989 121.362 -91.3205 0 0 1 132 190 212
-49.573 125.383 -92.7437 0 0 1 198 207 207
-62.7471 131.368 -92.5767 0 0 1 193 200 204
-69.3544 110.249 -81.2462 0 0 1 145 144 113
-45.417 105.528 -92.4186 0 0 1 201 209 210
-69.528 104.068 -81.0499 0 0 1 154 164 107
-69.5094 116.566 -83.6918 0 0 1 166 190 151
-53.1478 114.281 -92.5219 0 0 1 202 210 212
-55.6538 127.425 -92.6359 0 0 1 200 206 207
-61.7675 122.898 -92.4796 0 0 1 187 189 187
-55.7374 107.899 -92.2355 0 0 1 216 223 224
-50.362 111.5 -92.4227 0 0 1 198 206 208
-66.6067 125.185 -92.4402 0 0 1 175 180 176
-68.3931 108.16 -82.914 0 0 1 107 130 93
-56.9538 132.291 -92.728 0 0 1 207 241 251
-54.8616 118.984 -92.5646 0 0 1 203 209 212
-67.5714 127.057 -91.2962 -0.0499786 -0.166944 0.984699 177 229 238
-53.5733 127.255 -92.6217 0 0 1 204 212 213
-57.3966 103.024 -92.231 0 0 1 206 213 213
-57.7008 114.178 -92.5646 0 0 1 213 219 219
-56.1605 110.479 -92.3905 0 0 1 214 219 220
-69.6622 109.062 -81.5615 0 0 1 35 36 22
-63.6385 117.39 -92.3529 0 0 1 193 196 199
-49.3756 129.565 -92.8229 0 0 1 200 207 207
-67.8267 127.11 -91.3121 0 0 1 146 187 172
-44.619 125.171 -92.7699 0 0 1 195 200 151
-65.3697 123.363 -92.3997 0 0 1 199 202 199
-55.5991 128.027 -92.6254 0 0 1 197 202 205
-67.7043 107.175 -91.9973 0 0 1 60 56 44
-56.1209 134.626 -92.7602 0 0 1 253 254 255
-67.6391 134.411 -92.7445 0 0 1 39 51 28
-50.6202 103.852 -92.4245 0 0 1 185 192 190
-68.1257 110.845 -82.8231 0 0 1 176 182 159
-61.9601 123.765 -92.5425 0 0 1 181 182 179
-72.1932 133.848 -95.2538 0 0 1 19 24 15
-61.4523 104.789 -92.1457 0 0 1 186 190 186
-51.2511 110.265 -92.3521 0 0 1 203 210 212
-47.7901 131.323 -92.8279 0 0 1 202 210 211
-69.7639 130.091 -92.6467 0 0 1 67 74 54
-69.2033 116.777 -91.2301 0 0 1 35 71 102
-62.7475 129.632 -92.5467 0 0 1 192 198 204
-68.3403 128.519 -92.2456 0 0 1 109 117 81
-66.5066 108.521 -83.4298 0 0 1 0 0 0
-66.8966 107.821 -91.4539 0 0 1 43 56 36
-53.4163 119.941 -92.5464 0 0 1 199 207 209
-46.6215 122.391 -92.7809 0 0 1 238 233 222
-55.6614 109.656 -92.479 0 0 1 209 216 216
-52.0558 126 -92.6858 0 0 1 206 212 215
-58.3567 117.964 -92.4615 0 0 1 206 211 211
-58.092 125.487 -92.5198 0 0 1 204 210 210
-65.5004 121.793 -92.3813 0 0 1 197 198 197
-64.6453 108.063 -92.1971 0 0 1 139 142 136
-68.4383 107.872 -81.2605 0 0 1 102 105 71
-50.463 120.193 -92.6492 0 0 1 203 211 213
-48.9115 115.426 -92.5875 0 0 1 190 198 200
-56.7341 126.483 -92.6426 0 0 1 210 213 213
-44.5486 109.167 -92.4909 0 0 1 208 206 198
-68.8483 131.274 -92.5506 0 0 1 103 116 68
-69.0198 126.07 -92.0022 0 0 1 98 108 70
-70.6962 129.405 -92.715 0 0 1 79 79 49
-55.0386 120.396 -92.5816 0 0 1 201 209 211
-50.605 118.006 -92.6503 0 0 1 204 211 213
-59.4702 110.276 -92.4488 0 0 1 218 224 224
-65.188 132.338 -91.474 -0.151864 0.110839 0.982167 217 246 246
-50.4637 132.537 -92.9554 0 0 1 199 207 206
-48.623 131.697 -92.9052 0 0 1 198 204 205
-51.9443 120.427 -92.5727 0 0 1 208 213 216
-50.0326 106.703 -92.3321 0 0 1 204 212 214
-48.2581 109.289 -92.5345 0 0 1 195 203 206
-47.4354 109.436 -92.5401 0 0 1 195 202 205
-59.056 105.025 -92.2155 0 0 1 169 152 160
-57.2659 106.67 -92.3754 0 0 1 221 226 226
-61.949 128.61 -92.5674 0 0 1 198 203 202
-61.4515 119.728 -92.4773 0 0 1 191 195 194
-69.6481 123.307 -91.4452 0 0 1 157 194 202
-55.1168 114.34 -92.4964 0 0 1 207 213 216
-66.927 134.539 -92.2959 0 0 1 106 114 73
-45.3143 114.394 -92.5461 0 0 1 162 172 127
-61.0779 125.213 -92.5411 0 0 1 184 186 184
-44.4895 111.703 -92.4764 0 0 1 148 151 102
-54.5185 109.496 -92.3349 0 0 1 206 215 216
-65.0873 117.756 -92.3751 0 0 1 191 193 191
-65.757 107.167 -84.0711 0 0 1 54 54 37
-50.1076 109.787 -92.4313 0 0 1 193 202 205
-62.0926 117.888 -92.4959 0 0 1 195 199 195
-48.2669 122.041 -92.893 0 0 1 188 191 196
-58.8898 130.133 -92.6685 0 0 1 174 177 179
-49.1727 106.732 -92.2795 0 0 1 204 212 214
-52.8696 111.163 -92.4053 0 0 1 206 211 214
-56.9806 109.727 -92.3541 0 0 1 214 223 222
-50.5074 112.8 -92.7163 0 0 1 211 219 222
-71.6833 135.648 -88.045 0 0 1 74 84 50
-48.1822 106.923 -92.4138 0 0 1 201 209 211
-66.9609 132.858 -92.1371 0 0 1 133 152 88
-52.0946 102.563 -92.1824 0 0 1 203 210 212
-47.3482 125.893 -92.8467 0 0 1 191 196 198
-70.4217 125.542 -86.5457 0 0 1 103 105 83
-50.0913 126.187 -92.9154 0 0 1 178 186 185
-68.3058 114.755 -91.2376 0 0 1 64 126 153
-55.9592 117.013 -92.5165 0 0 1 208 214 217
-63.8401 125.059 -92.4801 0 0 1 194 198 196
-61.6741 127.935 -92.5175 0 0 1 185 187 189
-49.7774 108.893 -92.5418 0 0 1 202 210 212
-52.6575 127.422 -92.6652 0 0 1 203 210 212
-71.186 135.333 -88.304 0 0 1 129 131 85
-54.0991 132.384 -92.7139 0 0 1 203 207 214
-60.6525 122.554 -92.4891 0 0 1 197 199 198
-66.6019 107.995 -91.6009 0 0 1 51 52 59
-68.4819 131.225 -92.1749 0 0 1 103 117 70
-66.7917 127.879 -91.41 0 0 1 196 201 201
-46.6323 123.928 -92.7791 0 0 1 167 166 139
-51.7683 106.904 -92.4424 0 0 1 206 212 212
-51.2879 115.947 -92.5559 0 0 1 211 217 220
-57.6799 120.164 -92.4345 0 0 1 206 211 212
-60.3154 121.281 -92.4861 0 0 1 195 199 200
-59.7211 116.635 -92.3837 0 0 1 214 219 219
-59.3005 112.743 -92.4632 0 0 1 217 224 224
-69.7413 123.997 -91.761 0 0 1 130 142 111
-69.7308 110.752 -82.2884 0 0 1 20 22 15
-45.8345 118.902 -92.6721 0 0 1 142 162 101
-58.906 124.426 -92.5698 0 0 1 203 209 208
-49.3614 103.499 -92.4129 0 0 1 209 216 219
-58.7378 109.478 -92.3987 0 0 1 214 219 220
-53.1075 102.084 -92.3009 0 0 1 218 223 226
-51.3062 112.978 -92.7752 0 0 1 193 198 202
-46.6742 111.553 -92.6473 0 0 1 180 185 182
-53.8324 123.393 -92.6645 0 0 1 207 213 216
-69.8182 119.967 -91.2473 0 0 1 104 177 207
-54.9077 131.527 -92.7204 0 0 1 234 244 249
-46.9316 106.471 -92.3601 0 0 1 205 211 212
-46.1511 108.681 -92.4036 0 0 1 191 197 200
-53.3213 111.905 -92.6138 0 0 1 215 224 226
-69.0794 104.059 -81.5154 0 0 1 158 163 112
-57.9208 115.85 -92.4451 0 0 1 213 218 221
-48.0781 105.845 -92.4299 0 0 1 201 209 211
-65.4905 133.684 -92.2521 0 0 1 114 108 63
-56.2545 130.215 -92.6722 0 0 1 199 205 211
-69.9674 103.269 -88.1371 0 0 1 58 58 39
-64.5735 131.541 -92.5391 0 0 1 179 184 182
-58.2181 104.607 -92.1866 0 0 1 212 220 218
-60.2269 105.912 -92.3205 0 0 1 205 210 209
-44.8033 103.933 -92.4391 0 0 1 202 210 213
-62.3269 121.882 -92.5013 0 0 1 174 178 177
-50.1146 118.606 -92.6177 0 0 1 204 212 214
-44.7004 109.895 -92.6345 0 0 1 207 201 201
-46.3418 113.772 -92.5377 0 0 1 156 158 117
-69.1612 116.859 -91.3351 0 0 1 36 71 104
-52.1892 130.355 -92.81 0 0 1 205 213 215
-59.4226 104.09 -92.2148 0 0 1 203 208 205
-47.2093 105.406 -92.3651 0 0 1 204 212 214
-53.18 134.706 -92.8592 0 0 1 207 209 216
-49.6947 109.203 -92.4372 0 0 1 201 209 212
-46.5726 125.368 -92.7699 0 0 1 218 221 214
-48.8149 126.442 -92.7122 0 0 1 193 199 200
-49.4587 127.826 -92.8718 0 0 1 205 212 215
-64.9649 132.194 -91.4999 0 0 1 209 226 232
-45.1363 128.896 -92.8646 0 0 1 184 183 151
-59.8841 131.278 -92.5791 0 0 1 190 192 196
-51.4491 104.776 -92.4337 0 0 1 217 226 227
-56.6202 128.467 -92.5732 0 0 1 202 207 211
-45.4272 128.224 -92.919 0 0 1 194 196 180
-56.5241 130.585 -92.657 0 0 1 195 204 209
-64.4451 104.624 -91.1079 0 0 1 125 185 212
-49.3442 106.787 -92.5615 0 0 1 167 177 178
-67.3231 106.48 -82.1707 0 0 1 121 125 92
-53.581 103.183 -92.2456 0 0 1 212 219 219
-55.4929 103.5 -92.1763 0 0 1 210 216 217
-65.7249 102.882 -91.9301 0 0 1 130 147 94
-52.8637 121.534 -92.5413 0 0 1 202 210 212
-60.5771 103.349 -92.2123 0.18938 -0.0639346 0.97982 190 194 190
-51.3356 114.168 -92.8 0 0 1 177 182 185
-62.3134 112.993 -92.311 0 0 1 209 213 212
-67.9763 110.41 -84.1753 0 0 1 120 120 83
-63.3366 127.983 -92.4847 0 0 1 190 195 195
-53.8222 116.516 -92.4559 0 0 1 205 211 213
-51.0192 118.559 -92.6593 0 0 1 205 212 214
-65.6382 114.568 -92.4389 0 0 1 196 199 195
-50.6172 133.729 -92.8731 0 0 1 201 208 211
-47.7466 127.353 -92.787 0 0 1 198 205 203
-56.8036 116.939 -92.4306 0 0 1 211 217 219
-48.7519 116.526 -92.5533 0 0 1 196 203 206
-71.5232 125.817 -87.9006 0 0 1 109 117 76
-67.673 104.743 -82.641 0 0 1 101 113 73
-60.7885 110.172 -92.2746 0 0 1 209 214 214
-44.3433 104.811 -92.5013 0 0 1 194 201 204
-73.1596 133.075 -95.57 0 0 1 64 71 59
-54.1819 108.333 -92.4427 0 0 1 205 210 213
-57.5638 134.68 -92.6937 0 0 1 205 207 208
-48.1307 106.781 -92.3954 0 0 1 199 209 210
-51.3502 130.157 -92.79 0 0 1 205 212 215
-64.0688 119.894 -92.3487 0 0 1 202 204 201
-62.8989 132.293 -92.5863 0 0 1 193 200 204
-50.7816 126.839 -92.7006 0 0 1 198 206 209
-45.8869 123.916 -92.8253 0 0 1 171 184 125
-67.2867 126.424 -92.4278 0 0 1 124 126 128
-62.7468 124.656 -92.4762 0 0 1 184 187 185
-70.9248 132.725 -90.2965 0 0 1 100 115 92
-55.5033 117.512 -92.5032 0 0 1 209 215 218
-57.3585 111.041 -92.2948 0 0 1 211 220 220
-48.3493 104.853 -92.3142 0 0 1 205 213 215
-69.9784 108.653 -80.7341 0 0 1 96 97 62
-51.3265 104.941 -92.306 0 0 1 205 211 214
-55.0357 123.326 -92.6117 0 0 1 207 213 215
-57.02 109.475 -92.3818 0 0 1 216 223 222
-69.9047 118.777 -84.7957 0 0 1 120 142 100
-59.7998 129.512 -92.5734 0 0 1 207 215 214
-56.9544 108.265 -92.409 0 0 1 214 220 220
-58.7187 106.356 -92.1816 0 0 1 213 219 219
-69.939 107.832 -82.3505 0 0 1 126 134 95
-61.7032 106.677 -92.2566 0 0 1 190 194 189
-49.521 110.084 -92.4146 0 0 1 193 201 204
-55.9196 113.028 -92.3898 0 0 1 205 211 214
-70.9168 120.474 -85.8924 0 0 1 48 62 44
-54.4009 110.036 -92.3782 0 0 1 200 207 210
-55.2107 110.77 -92.3724 0 0 1 204 209 212
-60.7561 133.425 -92.5743 0 0 1 186 194 197
-66.2751 106.213 -82.9225 0 0 1 122 140 85
-53.7455 111.905 -92.4111 0 0 1 207 212 215
-49.5573 107.294 -92.661 0 0 1 0 0 0
-64.9385 114.737 -92.3381 0 0 1 182 188 184
-56.4843 128.597 -92.6539 0 0 1 201 207 212
-71.2364 130.096 -93.6474 0 0 1 38 42 30
-59.8891 126.698 -92.6076 0 0 1 182 185 186
-47.6264 130.484 -92.9677 0 0 1 197 205 205
-66.706 120.368 -92.3624 0 0 1 193 195 190
-65.049 134.497 -92.0963 0 0 1 89 90 70
-68.2619 110.721 -92.0481 0 0 1 34 36 31
-60.555 121.65 -92.4677 0 0 1 190 195 194
-70.8969 117.535 -83.9284 0 0 1 33 50 36
-68.4448 104.592 -81.7162 0 0 1 154 162 111
-68.717 128.301 -92.2453 0 0 1 132 127 96
-51.2886 133.716 -92.8875 0 0 1 200 207 213
-67.8722 126.549 -91.2717 0 0 1 165 222 229
-51.9872 121.399 -92.5758 0 0 1 202 210 213
-52.5893 127.638 -92.8111 0 0 1 203 210 212
-67.1309 118.077 -92.3389 0 0 1 182 184 180
-50.9246 109.211 -92.3438 0 0 1 200 208 211
-57.7373 120.796 -92.4922 0 0 1 209 212 212
-58.399 116.978 -92.4464 0 0 1 211 217 218
-44.3902 128.88 -92.8845 0 0 1 164 177 120
-57.7912 117.826 -92.3732 0 0 1 209 215 215
-46.23 119.015 -92.7381 0 0 1 160 166 120
-47.4643 121.6 -92.7543 0 0 1 200 215 226
-69.2733 134.583 -88.8494 0 0 1 109 105 65
-46.9216 124.547 -92.8446 0 0 1 214 221 219
-57.0898 134.82 -92.7279 0 0 1 216 238 245
-69.2167 130.711 -92.3281 0 0 1 97 102 74
-70.9664 115.96 -84.0221 0 0 1 138 177 108
-54.0758 131.638 -92.7302 0 0 1 195 201 207
-70.1264 126.589 -86.4381 0 0 1 119 132 96
-60.1681 133.146 -92.5603 0 0 1 190 196 200
-51.2315 105.095 -92.5177 0 0 1 159 162 164
-45.6583 128.683 -92.9769 0 0 1 193 202 197
-46.9769 111.358 -92.4511 0 0 1 193 199 202
-50.7324 114.831 -92.5865 0 0 1 209 216 219
-52.978 134.2 -92.9135 0 0 1 196 203 207
-50.4924 128.925 -92.8046 0 0 1 201 208 211
-50.2415 135.115 -92.8565 0 0 1 201 208 213
-54.211 111.399 -92.5667 0 0 1 202 208 209
-56.3119 103.59 -92.3008 0 0 1 213 219 221
-52.1255 120.285 -92.6312 0 0 1 208 214 216
-61.7976 123.31 -92.4733 0 0 1 185 186 185
-65.0767 105.921 -91.0302 0 0 1 116 199 219
-47.591 134.655 -92.8998 0 0 1 195 203 204
-60.6092 114.895 -92.4226 0 0 1 213 218 218
-55.3283 117.792 -92.4872 0 0 1 208 213 216
-68.3235 114.565 -91.2619 0 0 1 121 157 166
-46.3996 105.016 -92.3433 0 0 1 203 211 213
-55.051 110.316 -92.3957 0 0 1 207 215 216
-44.8487 106.632 -92.4434 0 0 1 191 195 198
-68.4229 108.799 -81.4864 0 0 1 108 117 77
-70.0319 118.629 -84.8101 0 0 1 61 68 41
-67.2459 130.395 -92.2366 0 0 1 76 99 62
-49.2707 104.399 -92.4834 0 0 1 202 208 210
-57.512 108.176 -92.2806 0 0 1 215 221 221
-59.541 116.088 -92.3365 0 0 1 213 218 218
-55.7152 134.797 -92.7734 0 0 1 253 254 254
-53.7649 113.291 -92.6358 0 0 1 204 212 214
-60.4266 123.532 -92.4762 0 0 1 195 197 197
-63.8746 123.517 -92.5931 0 0 1 197 201 200
-52.0001 130.7 -92.8178 0 0 1 206 214 216
-70.1463 135.112 -88.2426 0 0 1 126 119 89
-49.5335 126.297 -92.7486 0 0 1 209 214 217
-53.7301 108.29 -92.4395 0 0 1 205 211 214
-69.6853 103.669 -82.1722 0 0 1 158 179 122
-59.7518 133.224 -92.6675 0 0 1 192 197 200
-65.4488 103.902 -84.23 0 0 1 197 203 196
-44.1534 131.834 -93.016 0 0 1 202 198 184
-48.9318 110.74 -92.6423 0 0 1 194 203 205
-58.2381 131.715 -92.6733 0 0 1 211 241 249
-53.7344 134.009 -92.7374 0 0 1 211 217 228
-54.6699 104.988 -92.364 0 0 1 225 230 232
-64.4152 107.445 -92.2175 0 0 1 166 168 148
-51.2267 110.9 -92.4343 0 0 1 200 208 211
-69.3231 117.095 -84.0941 0 0 1 84 110 72
-52.1159 116.637 -92.5845 0 0 1 207 212 215
-69.6689 126.923 -92.2004 0 0 1 91 99 68
-63.9351 128.725 -92.5212 0 0 1 194 199 198
-50.7587 112.476 -92.511 0 0 1 196 204 206
-54.3862 121.138 -92.5239 0 0 1 203 209 211
-47.897 130.497 -92.9051 0 0 1 199 206 207
-55.8442 126.225 -92.6621 0 0 1 200 206 208
-48.8549 102.806 -92.3314 0 0 1 205 213 215
-64.13 120.528 -92.4147 0 0 1 201 205 203
-50.8623 118.812 -92.6212 0 0 1 207 213 215
-47.2233 104.604 -92.2233 0 0 1 202 210 213
-53.3791 131.037 -92.7457 0 0 1 198 205 210
-46.8405 111.751 -92.6294 0 0 1 201 209 211
-54.9656 130.218 -92.7702 0 0 1 205 214 224
-73.1456 121.802 -92.5615 0 0 1 28 34 28
-70.6594 122.555 -91.9977 0 0 1 191 213 224
-55.6842 123.593 -92.5328 0 0 1 205 212 211
-50.6873 113.91 -92.4914 0 0 1 208 216 219
-58.1828 134.783 -92.7494 0 0 1 194 197 201
-60.3901 106.869 -92.3092 0 0 1 207 211 212
-51.1605 116.368 -92.5883 0 0 1 211 216 219
-67.7292 133.39 -90.7813 0 0 1 89 101 78
-61.9906 106.755 -92.2023 0 0 1 187 191 187
-58.6535 104.8 -92.1839 0 0 1 226 211 213
-54.3202 122.339 -92.6378 0 0 1 204 210 213
-60.7596 120.324 -92.4365 0.131185 0.180368 0.974812 195 199 198
-45.8547 112.581 -92.4722 0 0 1 155 159 113
-51.1032 116.69 -92.5217 0 0 1 210 215 218
-53.441 105.91 -92.2112 0 0 1 208 214 214
-53.6088 118.299 -92.5371 0 0 1 206 214 216
-55.5583 109.39 -92.3969 0 0 1 213 221 220
-53.8952 107.617 -92.311 0 0 1 203 210 212
-64.4773 115.838 -92.3199 0 0 1 196 200 198
-60.3146 116.827 -92.4323 0 0 1 215 220 220
-67.3352 108.805 -83.9665 0 0 1 101 102 88
-48.5543 107.735 -92.3749 0 0 1 199 208 210
-45.3428 107.058 -92.4941 0 0 1 192 197 200
-57.3672 102.39 -92.0962 0 0 1 205 211 211
-56.6387 130.354 -92.6617 0 0 1 196 204 208
-63.0085 104.447 -92.1071 0 0 1 151 152 150
-59.6173 130.126 -92.611 0 0 1 196 201 205
-61.2768 125.301 -92.5366 0 0 1 179 180 178
-45.0778 118.433 -92.7365 0 0 1 157 166 117
-43.948 108.385 -92.5479 0 0 1 187 187 182
-44.4338 130.287 -92.9136 0 0 1 171 164 129
-63.2694 132.805 -92.6627 0 0 1 189 194 194
-66.6023 135.121 -91.9784 0 0 1 149 166 105
-56.5151 114.815 -92.667 0 0 1 205 210 210
-63.9751 122.254 -92.4556 0 0 1 200 202 200
-45.7558 125.998 -92.7803 0 0 1 163 171 120
-52.6119 108.43 -92.3499 0 0 1 208 214 217
-65.6472 118.869 -92.3605 0 0 1 199 200 197
-55.3743 105.778 -92.2485 0 0 1 213 220 221
-63.3163 122.496 -92.3943 0 0 1 204 206 204
-50.0488 127.715 -92.6862 0 0 1 200 207 210
-61.0213 114.049 -92.4046 0 0 1 222 229 228
-52.5787 107.907 -92.4448 0 0 1 210 215 218
-45.5507 129.159 -92.8387 0 0 1 197 202 200
-69.0667 108.902 -81.6366 0 0 1 100 101 79
-56.361 103.435 -92.3134 0 0 1 215 221 221
-66.1762 108.028 -82.6055 0 0 1 171 176 144
-44.9156 134.561 -92.8989 0 0 1 188 192 191
-51.6971 114.834 -92.6734 0 0 1 202 210 212
-62.2178 102.257 -92.0548 0 0 1 170 174 174
-44.2482 119.391 -92.6623 0 0 1 151 162 117
-55.6609 104.914 -92.2557 0 0 1 211 217 218
-45.7777 110.493 -92.4956 0 0 1 219 221 209
-65.5037 122.849 -92.4523 0 0 1 201 203 199
-49.9527 121.857 -92.68 0 0 1 205 211 214
-54.8795 102.722 -92.2919 0 0 1 211 217 217
-57.4528 113.677 -92.3881 0 0 1 209 215 215
-70.7858 118.851 -84.9528 0 0 1 46 61 47
-47.2859 108.524 -92.5371 0 0 1 194 202 205
-55.5933 127.923 -92.6097 0 0 1 198 204 205
-69.7469 121.997 -91.2376 0 0 1 159 217 225
-53.5406 135.323 -92.847 0 0 1 253 254 254
-61.4842 115.79 -92.3891 0 0 1 209 213 211
-61.3156 104.078 -92.2006 0 0 1 188 191 187
-44.4188 131.737 -92.962 0 0 1 200 202 187
-57.2227 127.892 -92.6217 0 0 1 200 207 211
-53.2957 129.179 -92.796 0 0 1 205 211 213
-58.0459 107.439 -92.2965 0 0 1 215 222 222
-47.885 111.388 -92.5592 0 0 1 193 200 202
-44.0339 124.126 -92.7655 0 0 1 206 209 161
-51.2568 132.419 -92.8519 0 0 1 202 209 209
-48.3294 103.893 -92.2245 0 0 1 205 214 215
-66.3476 107.765 -82.5764 0 0 1 167 168 142
-49.3789 107.57 -92.5917 0 0 1 158 160 166
-69.0312 123.861 -91.2922 0 0 1 188 230 236
-56.2186 128.658 -92.6824 0 0 1 205 209 212
-69.2071 112.984 -84.0764 0 0 1 36 42 33
-62.293 118.447 -92.4522 0 0 1 187 191 187
-69.7414 103.674 -82.1967 0 0 1 158 179 122
-45.4284 109.242 -92.5625 0 0 1 218 221 222
-69.2106 103.554 -82.6585 0 0 1 94 109 72
-50.6626 114.318 -92.6108 0 0 1 210 217 220
-46.0683 108.832 -92.5752 0 0 1 192 198 201
-52.2186 102.334 -92.2941 0 0 1 214 221 223
-68.9663 135.295 -92.1667 0 0 1 87 90 55
-58.0822 118.216 -92.4161 0 0 1 228 227 217
-53.1515 109.516 -92.4906 0 0 1 206 212 215
-65.3861 113.878 -92.303 0 0 1 192 196 192
-66.2959 128.2 -92.4692 0 0 1 150 154 153
-71.8068 130.245 -92.4728 0 0 1 100 106 73
-44.0226 108.084 -92.5862 0 0 1 192 191 186
-55.803 123.38 -92.579 0 0 1 206 211 211
-45.0864 116.391 -92.6301 0 0 1 96 138 75
-58.8667 106.206 -92.1848 0 0 1 213 221 220
-65.1631 103.411 -84.3661 0 0 1 178 197 156
-49.2093 111.554 -92.4697 0 0 1 196 202 205
-52.5636 104.092 -92.3754 0 0 1 218 225 228
-54.3014 112.304 -92.5559 0 0 1 206 213 215
-71.9547 133.29 -90.6813 0 0 1 68 72 49
-51.1379 114.195 -92.4344 0 0 1 208 216 218
-71.133 133.527 -89.0038 0 0 1 119 121 75
-60.4334 132.995 -92.6748 0 0 1 190 195 199
-70.037 132.276 -89.949 0 0 1 121 153 106
-47.6182 129.585 -92.7638 0 0 1 199 205 206
-56.4799 133.819 -92.7022 0 0 1 255 255 255
-65.8069 108.546 -91.1667 0 0 1 78 128 151
-66.1954 114.941 -92.3147 0 0 1 186 195 186
-62.222 125.712 -92.5031 0 0 1 182 184 183
-62.6203 116.551 -92.4326 0 0 1 202 205 202
-68.9131 134.257 -90.081 0 0 1 114 102 63
-46.8989 119.183 -92.7064 0 0 1 168 168 142
-62.7084 129.47 -92.5978 0 0 1 191 198 202
-60.7814 131.807 -92.5665 0 0 1 189 196 201
-70.003 112.107 -82.2277 0 0 1 79 85 60
-57.3064 106.179 -92.2769 0 0 1 218 225 225
-48.1313 133.336 -92.8865 0 0 1 198 204 206
-63.0471 133.137 -92.6077 0 0 1 190 195 196
-66.1289 107.517 -91.0814 0 0 1 97 114 122
-61.1519 135.605 -92.6458 0 0 1 194 198 202
-44.9291 113.309 -92.6262 0 0 1 153 163 107
-47.2797 113.383 -92.5847 0 0 1 184 190 194
-50.0495 119.419 -92.5943 0 0 1 205 211 213
-47.985 125.728 -92.8601 0 0 1 192 197 198
-50.7714 119.358 -92.7547 0 0 1 191 196 202
-66.1468 130.75 -91.3993 0 0 1 229 248 250
-53.9143 133.586 -92.8169 0 0 1 215 226 235
-72.9174 132.496 -94.3974 0 0 1 27 27 18
-70.058 111.977 -82.2261 0 0 1 81 85 60
-55.9695 120.741 -92.5764 0 0 1 202 210 211
-55.1582 131.629 -92.7034 0 0 1 203 235 250
-67.5695 115.308 -92.2691 0 0 1 124 121 113
-62.7281 125.216 -92.4827 0 0 1 191 192 190
-50.4692 114.919 -92.5911 0 0 1 207 213 216
-45.9902 120.324 -92.6887 0 0 1 167 175 121
-53.7094 119.689 -92.4942 0 0 1 198 206 208
-59.2212 121.834 -92.5734 0 0 1 209 213 213
-45.6639 110.667 -92.5096 0 0 1 202 200 174
-58.0284 115.678 -92.4353 0 0 1 212 216 219
-56.2968 129.916 -92.6678 0 0 1 199 206 210
-48.0387 115.607 -92.5406 0 0 1 192 198 201
-72.4057 128.08 -91.1058 0 0 1 107 108 63
-67.8609 126.671 -91.2536 0 0 1 153 208 216
-48.8891 106.829 -92.3592 0 0 1 202 210 212
-49.0672 135.124 -92.995 0 0 1 198 205 205
-48.2843 107.969 -92.4911 0 0 1 173 178 181
-45.2553 104.281 -92.306 0 0 1 200 209 211
-46.8705 129.882 -92.9761 0 0 1 196 202 202
-56.9854 124.12 -92.5082 0 0 1 209 214 215
-56.1484 128.557 -92.6364 0 0 1 206 209 213
-60.3445 131.2 -92.6384 0 0 1 199 202 206
-50.2879 105.167 -92.4962 0 0 1 208 214 216
-57.4965 117.077 -92.4209 0 0 1 211 217 218
-46.5066 106.092 -92.425 0 0 1 202 210 212
-51.6862 115.21 -92.7918 0 0 1 196 204 207
-52.971 103.828 -92.2861 0 0 1 201 209 210
-55.3257 135.537 -92.7886 0 0 1 194 240 253
-71.9232 133.524 -95.172 0 0 1 22 25 18
-47.868 107.487 -92.3894 0 0 1 200 209 210
-53.1233 132.482 -92.7623 0 0 1 192 200 206
-45.661 117.893 -92.6314 0 0 1 161 168 123
-59.0338 112.624 -92.3931 0 0 1 216 222 223
-45.9498 131.809 -92.9786 0 0 1 189 196 195
-71.0147 115.325 -84.1954 0 0 1 94 122 82
-70.0079 119.691 -91.2893 0 0 1 85 142 164
-66.5065 135.47 -89.5663 0 0 1 112 138 101
-68.1087 107.154 -81.8683 0 0 1 0 0 0
-47.3536 107.887 -92.3975 0 0 1 196 203 207
-59.1396 104.336 -92.2945 0 0 1 203 207 203
-68.6616 105.203 -81.0021 0 0 1 152 157 104
-52.5301 109.881 -92.4548 0 0 1 205 212 215
-61.2426 113.635 -92.4355 0 0 1 223 229 228
-64.8938 106.708 -91.3981 0 0 1 62 116 147
-46.0613 131.69 -92.9015 0 0 1 190 197 197
-63.858 114.028 -92.2737 0 0 1 195 199 196
-51.5421 125.702 -92.8039 0 0 1 203 210 213
-71.209 121.244 -87.096 0 0 1 60 88 92
-44.8302 106.936 -92.3908 0 0 1 194 199 203
-71.4506 130.71 -93.3955 0 0 1 73 72 50
-59.2287 107.439 -92.2583 0 0 1 218 223 223
-66.8552 122.749 -92.4462 0 0 1 185 187 183
-44.0806 134.481 -93.0237 0 0 1 195 202 201
-58.0445 102.566 -92.2315 0 0 1 204 209 209
-59.6292 121.733 -92.5161 0 0 1 205 211 210
-52.6267 131.6 -92.8014 0 0 1 201 208 210
-72.5335 128.604 -91.3825 0 0 1 54 65 36
-50.5059 110.013 -92.492 0 0 1 194 202 205
-71.3786 124.882 -86.7344 0 0 1 128 132 119
-66.9294 107.702 -92.0562 0 0 1 55 63 42
-69.7265 129.054 -92.3474 0 0 1 72 80 52
-56.9258 109.274 -92.3934 0 0 1 218 224 224
-56.9162 108.538 -92.2896 0 0 1 210 218 217
-57.8689 120.911 -92.503 0 0 1 209 211 212
-58.5906 117.953 -92.3918 0 0 1 209 214 214
-63.2568 118.673 -92.4629 0 0 1 172 179 178
-67.2852 108.218 -91.1803 0 0 1 94 109 69
-69.104 125.21 -92.079 0 0 1 144 148 143
-51.3641 106.323 -92.3161 0 0 1 206 214 216
-55.2568 110.529 -92.3338 0 0 1 201 207 210
-66.966 131.425 -92.3832 0 0 1 84 102 58
-56.6714 117.108 -92.5519 0 0 1 211 217 219
-72.5948 128.719 -91.2078 0 0 1 74 75 57
-49.2094 123.034 -92.8047 0 0 1 203 210 211
-49.7169 104.256 -92.4413 0 0 1 210 216 219
-61.2629 113.297 -92.4255 0 0 1 221 227 227
-52.4091 122.478 -92.5875 0 0 1 202 210 212
-60.2199 127.44 -92.5814 0 0 1 181 184 187
-62.0452 111.744 -92.4411 0 0 1 205 210 208
-54.2948 126.079 -92.7012 0 0 1 200 207 209
-62.0064 102.513 -92.0687 0 0 1 187 187 180
-56.7128 101.99 -92.3071 0 0 1 206 211 211
-50.2367 127.626 -92.8545 0 0 1 201 207 211
-58.2926 116.375 -92.3901 0 0 1 210 217 217
-54.4497 132.937 -92.7272 0 0 1 243 247 250
-57.6174 119.72 -92.5098 0 0 1 206 211 212
-45.7349 111.155 -92.5492 0 0 1 184 185 144
-44.939 132.85 -92.9782 0 0 1 189 195 195
-51.0077 107.156 -92.2956 0 0 1 205 211 214
-53.3097 128.577 -92.7142 0 0 1 204 211 213
-48.7443 115.301 -92.6137 0 0 1 192 200 202
-68.198 104.278 -82.4071 0 0 1 163 169 114
-69.9595 120.065 -91.2049 0 0 1 92 160 190
-69.3034 113.696 -91.6833 0 0 1 57 68 70
-51.5508 106.981 -92.4235 0 0 1 207 214 216
-49.959 103.185 -92.3155 0 0 1 209 217 219
-71.3441 120.774 -86.941 0 0 1 81 115 90
-70.1967 124.79 -85.6309 0 0 1 179 190 198
-65.4429 118.826 -92.384 0 0 1 194 195 194
-58.4213 106.214 -92.3543 0 0 1 204 212 212
-59.548 133.747 -92.6233 0 0 1 195 197 201
-57.5743 112.964 -92.3549 0 0 1 210 215 218
-68.3435 104.165 -82.1626 0 0 1 123 131 81
-64.5115 114.771 -92.2316 0 0 1 189 193 189
-53.8019 118.728 -92.5231 0 0 1 204 212 214
-56.7573 124.401 -92.5085 0 0 1 205 211 211
-61.6685 104.644 -92.2243 0 0 1 178 180 172
-59.5387 116.204 -92.4694 0 0 1 214 219 220
-53.6015 112.937 -92.4791 0 0 1 205 212 214
-59.2765 132.917 -92.5602 0 0 1 199 203 205
-48.9168 107.88 -92.5211 0 0 1 202 210 212
-65.0696 133.976 -91.6312 0 0 1 123 127 116
-46.767 111.433 -92.6531 0 0 1 180 185 183
-51.828 113.665 -92.6792 0 0 1 203 211 213
-58.019 109.962 -92.297 0 0 1 213 219 219
-56.545 104.599 -92.1799 0 0 1 211 217 218
-68.052 110.111 -82.882 0 0 1 85 85 63
-46.3469 135.596 -93.0094 0 0 1 204 209 210
-51.6792 105.853 -92.4402 0 0 1 161 163 170
-58.6345 123.515 -92.4987 0 0 1 208 213 213
-71.9511 134.194 -90.1038 0 0 1 88 97 59
-62.5878 104.6 -92.1068 0 0 1 154 156 149
-69.8108 116.334 -83.71 0 0 1 158 190 128
-59.5238 103.129 -92.1325 0 0 1 198 204 202
-65.454 103.329 -84.2135 0 0 1 176 189 157
-68.3331 113.127 -91.1656 0 0 1 43 73 109
-46.1214 104.414 -92.3532 0 0 1 202 213 213
-52.0104 109.991 -92.5263 0 0 1 205 212 215
-68.714 130.153 -92.2179 0 0 1 132 143 91
-51.1475 106.887 -92.3544 0 0 1 205 212 214
-71.9974 121.811 -90.081 0 0 1 39 41 30
-71.8374 129.548 -94.0566 0 0 1 87 78 61
-67.0859 106.882 -90.5205 0 0 1 57 56 34
-48.8981 103.65 -92.2076 0 0 1 204 213 215
-49.7473 130.911 -92.7858 0 0 1 198 205 205
-70.6782 114.458 -84.8847 0 0 1 18 18 17
-47.1006 132.288 -92.978 0 0 1 197 206 206
-64.4315 117.978 -92.4642 0 0 1 200 203 202
-67.07 131.377 -92.411 0 0 1 93 110 61
-51.2844 102.228 -92.3034 0 0 1 209 215 215
-68.809 130.555 -92.3764 0 0 1 119 132 87
-49.1616 123.948 -92.7842 0 0 1 200 208 209
-58.9354 121.688 -92.5406 0 0 1 207 211 211
-54.0179 114.067 -92.5076 0 0 1 205 212 214
-47.7161 111.163 -92.4541 0 0 1 194 200 203
-50.7477 109.796 -92.6098 0 0 1 196 202 205
-69.7193 123.221 -91.4012 0 0 1 155 172 176
-67.6648 106.222 -81.3784 0 0 1 105 108 77
-50.9471 120.722 -92.6701 0 0 1 203 210 212
-63.3765 115.925 -92.3759 0 0 1 199 206 197
-54.036 106.936 -92.3249 0 0 1 202 210 212
-49.1091 106.272 -92.415 0 0 1 207 213 216
-63.7356 128.188 -92.5108 0 0 1 196 199 198
-70.9487 118.04 -84.3598 0 0 1 47 67 49
-71.6076 126.557 -87.9785 0 0 1 101 114 75
-50.3774 115.746 -92.5787 0 0 1 206 213 215
-59.8423 111.385 -92.4236 0 0 1 224 230 230
-51.7951 105.458 -92.272 0 0 1 206 213 216
-54.3177 134.902 -92.7802 0 0 1 196 234 250
-56.6221 124.423 -92.6102 0 0 1 204 210 211
-57.2199 125.823 -92.5997 0 0 1 200 206 205
-55.0412 105.866 -92.3729 0 0 1 210 216 218
-54.8097 109.071 -92.287 0 0 1 209 217 219
-44.2231 102.298 -92.3738 0 0 1 203 210 212
-54.9428 111.131 -92.3825 0 0 1 203 209 212
-64.5818 108.716 -92.2088 0 0 1 166 174 154
-65.3756 122.157 -92.419 0 0 1 197 200 197
-67.0457 127.34 -91.3061 0 0 1 188 195 201
-69.5535 132.747 -90.1347 0 0 1 120 143 119
-56.8451 125.005 -92.5837 0 0 1 208 213 214
-59.244 107.187 -92.2576 0 0 1 216 223 223
-45.4521 116.347 -92.5974 0 0 1 99 143 74
-70.6027 131.278 -91.7917 0 0 1 96 115 82
-52.8062 134.317 -92.8393 0 0 1 195 202 207
-70.7261 124.8 -85.5312 0 0 1 176 204 206
-50.8584 125.226 -92.6837 0 0 1 202 210 212
-64.6687 127.468 -92.4713 0 0 1 196 197 196
-64.2924 132.21 -92.5545 0 0 1 164 170 169
-67.1968 117.418 -92.3744 0 0 1 177 179 175
-49.4321 116.806 -92.5698 0 0 1 198 205 208
-48.8196 132.993 -92.9857 0 0 1 199 205 206
-48.1439 102.883 -92.3698 0 0 1 203 213 214
-55.3489 104.479 -92.2327 0 0 1 211 217 217
-52.3543 102.171 -92.1793 0 0 1 206 211 213
-71.2225 134.284 -88.0888 0 0 1 169 158 109
-63.4683 122.248 -92.4977 0 0 1 202 206 205
-70.0407 133.093 -89.3841 0 0 1 89 106 83
-50.0596 133.855 -92.8878 0 0 1 199 206 208
-45.0128 102.075 -92.441 0 0 1 207 212 216
-72.5522 128.062 -91.1067 0 0 1 94 96 63
-51.1147 102.924 -92.2024 0 0 1 209 214 217
-67.5926 110.534 -83.7965 0 0 1 50 62 55
-44.6047 112.578 -92.5928 0 0 1 151 154 91
-56.3446 119.667 -92.622 0 0 1 202 209 210
-48.8175 104.987 -92.2837 0 0 1 206 213 216
-50.2017 114.626 -92.5431 0 0 1 204 212 215
-72.3875 130.697 -92.2353 0 0 1 51 53 37
-55.8603 106.013 -92.3751 0 0 1 203 209 211
-66.3849 115.776 -92.3445 0 0 1 194 196 193
-60.2445 105.918 -92.2016 0 0 1 205 210 209
-46.6613 103.45 -92.3389 0 0 1 202 211 213
-72.1261 129.2 -89.9136 0 0 1 75 77 53
-63.257 120.473 -92.4521 0 0 1 187 190 185
-58.5188 127.968 -92.6196 0 0 1 196 201 205
-53.9562 111.304 -92.5788 0 0 1 211 219 219
-68.8644 122.95 -92.3616 0 0 1 138 141 133
-48.6198 130.25 -92.8384 0 0 1 199 207 209
-47.3849 104.812 -92.3009 0 0 1 200 210 212
-63.3678 114.318 -92.382 0 0 1 196 198 197
-50.091 125.767 -92.6827 0 0 1 202 210 209
-57.2731 103.605 -92.1738 0 0 1 208 213 214
-66.1476 112.361 -92.2896 0 0 1 115 117 121
-72.9542 131.277 -92.891 0 0 1 25 27 20
-58.3253 134.013 -92.7163 0 0 1 195 198 201
-52.5359 102.863 -92.1669 0 0 1 202 209 210
-45.3292 106.829 -92.4949 0 0 1 192 199 201
-72.4667 122.134 -92.1175 0 0 1 30 33 21
-68.1687 123.419 -92.3586 0 0 1 157 155 142
-62.0246 116.428 -92.3721 0 0 1 210 213 209
-65.8722 123.196 -92.5375 0 0 1 197 199 195
-60.4761 119.848 -92.4109 0 0 1 202 206 205
-72.1132 124.939 -89.1804 0 0 1 62 67 46
-59.3505 130.533 -92.6132 0 0 1 194 200 203
-67.6612 116.199 -92.3291 0 0 1 143 138 133
-62.495 123.835 -92.4861 0 0 1 204 204 203
-57.6219 105.719 -92.3226 0 0 1 215 224 223
-59.0253 131.85 -92.6552 0 0 1 166 170 174
-55.7626 110.89 -92.3284 0 0 1 197 202 205
-47.9925 124.701 -92.8246 0 0 1 188 195 197
-57.1236 123.083 -92.5716 0 0 1 207 214 213
-69.3549 113.868 -84.3915 0 0 1 101 108 91
-44.8691 105.156 -92.4132 0 0 1 199 206 208
-52.4151 134.665 -92.8459 0 0 1 197 204 209
-59.525 134.259 -92.6578 0 0 1 188 193 197
-51.2717 106.781 -92.2673 0 0 1 206 214 216
-53.3178 108.577 -92.3098 0 0 1 206 213 216
-52.9046 126.743 -92.6852 0 0 1 204 210 213
-47.7306 118.963 -92.6615 0 0 1 199 222 236
-72.1493 120.812 -91.5845 0 0 1 24 29 25
-62.9189 120.946 -92.4781 0 0 1 175 178 174
-47.6306 103.649 -92.2302 0 0 1 202 211 213
-60.0007 133.066 -92.6477 0 0 1 191 196 200
-66.6113 129.141 -91.4111 0 0 1 216 245 249
-69.8087 104.613 -80.8961 0 0 1 147 155 112
-70.6393 117.453 -84.2875 0 0 1 45 61 46
-52.7536 106.793 -92.2958 0 0 1 203 212 214
-59.0958 115.543 -92.4468 0 0 1 217 223 223
-55.7999 109.062 -92.4369 0 0 1 214 220 221
-48.3719 128.427 -92.9042 0 0 1 201 207 210
-67.575 124.833 -92.4459 0 0 1 164 161 155
-47.6115 112.097 -92.5807 0 0 1 192 201 204
-45.113 131.687 -92.9425 0 0 1 190 197 196
-55.1374 123.291 -92.4866 0 0 1 205 212 215
-53.4648 130.178 -92.6273 0 0 1 204 209 212
-67.4225 103.453 -83.3149 0 0 1 149 159 113
-48.1111 117.461 -92.6172 0 0 1 217 226 228
-58.4866 132.98 -92.6061 0 0 1 183 190 194
-68.2317 120.862 -92.3177 0 0 1 158 159 153
-55.1182 110.585 -92.6135 0 0 1 192 196 199
-66.3395 105.819 -83.4469 0 0 1 113 122 73
-56.4187 104.609 -92.2031 0 0 1 211 216 218
-45.695 124.56 -92.8204 0 0 1 169 181 119
-71.2612 128.697 -92.6992 0 0 1 86 87 61
-60.9182 114.061 -92.4196 0 0 1 224 230 229
-56.7023 106.775 -92.2699 0 0 1 216 224 224
-66.6107 135.438 -89.5101 0 0 1 116 138 97
-67.8859 109.76 -91.8092 0 0 1 30 31 21
-62.84 110.209 -92.3226 0 0 1 194 198 194
-67.4823 130.201 -92.1009 0 0 1 122 135 87
-57.4995 116.616 -92.3983 0 0 1 212 218 218
-49.9999 106.272 -92.3686 0 0 1 207 213 216
-68.2035 132.797 -90.2314 0 0 1 145 171 130
-66.7965 109.975 -91.1014 0 0 1 82 163 160
-51.8526 130.073 -92.7337 0 0 1 207 213 215
-54.7705 126.862 -92.7289 0 0 1 200 205 208
-62.1129 131.605 -92.5509 0 0 1 191 197 203
-66.3178 123.712 -92.4609 0 0 1 194 195 193
-54.7684 126.455 -92.6649 0 0 1 198 205 208
-62.9597 131.49 -92.5942 0 0 1 193 200 203
-49.8185 109.424 -92.3656 0 0 1 196 202 205
-57.5648 115.916 -92.4018 0 0 1 212 217 219
-57.5585 120.893 -92.5748 0 0 1 206 211 212
-63.3489 130.588 -92.6728 0 0 1 194 201 205
-47.9876 135.123 -92.8339 0 0 1 194 201 201
-47.6777 114.007 -92.5135 0 0 1 189 194 198
-67.326 126.559 -91.563 0 0 1 186 236 242
-47.9826 105.851 -92.3917 0 0 1 201 209 211
-66.3768 112.961 -92.3622 0 0 1 124 131 128
-56.1605 117.605 -92.5039 0 0 1 208 214 216
-64.5251 134.515 -91.5446 0 0 1 216 227 232
-59.2419 125.603 -92.5653 0 0 1 200 204 205
-53.146 112.079 -92.5502 0 0 1 206 211 214
-49.0855 127.575 -92.8417 0 0 1 202 209 211
-60.1871 129.358 -92.5562 0 0 1 189 193 194
-63.2266 112.591 -92.3834 0 0 1 192 196 191
-44.4561 105.971 -92.571 0 0 1 203 210 211
-64.7996 108.998 -92.2917 0 0 1 148 150 145
-49.3901 117.295 -92.6417 0 0 1 199 206 209
-55.8559 121.971 -92.5855 0 0 1 203 210 212
-64.2946 107.423 -92.201 0 0 1 169 174 149
-54.9704 122.437 -92.6034 0 0 1 206 212 215
-64.6747 127.711 -92.4807 0 0 1 197 200 197
-48.3036 116.012 -92.5444 0 0 1 191 198 200
-62.3287 135.24 -92.6697 0 0 1 177 183 186
-64.5476 112.043 -92.3048 0 0 1 181 185 182
-59.3426 129.605 -92.647 0 0 1 175 176 178
-45.2908 129.955 -92.9438 0 0 1 197 202 199
-72.4819 130.566 -91.42 0 0 1 63 76 56
-56.9887 130.532 -92.6937 0 0 1 199 205 210
-47.6843 122.066 -92.8154 0 0 1 212 220 222
-56.1595 104.299 -92.1246 0 0 1 210 215 217
-72.0881 124.986 -92.9394 0 0 1 64 64 47
-61.7376 122.154 -92.4808 0 0 1 182 184 181
-65.1463 109.987 -92.2733 0 0 1 163 165 161
-50.2844 114.182 -92.6032 0 0 1 203 210 213
-59.5453 107.001 -92.1864 0 0 1 219 225 224
-55.2926 114.13 -92.5989 0 0 1 206 214 215
-51.6994 112.822 -92.6511 0 0 1 193 199 202
-55.8363 135.244 -92.7896 0 0 1 198 239 254
-47.937 107.555 -92.4245 0 0 1 200 209 210
-61.3402 133.876 -92.6347 0 0 1 191 198 202
-65.7317 119.487 -92.4377 0 0 1 199 203 200
-58.1109 122.541 -92.4962 0 0 1 222 223 215
-49.5041 106.368 -92.4746 0 0 1 183 192 191
-69.0861 112.384 -83.1676 0 0 1 20 22 20
-51.4345 109.012 -92.4665 0 0 1 203 211 213
-49.9457 103.72 -92.3686 0 0 1 210 218 220
-47.612 118.01 -92.7179 0 0 1 249 251 252
-72.9954 124.535 -91.6557 0 0 1 32 47 31
-62.0886 122.501 -92.4424 0 0 1 177 179 176
-61.0218 118.55 -92.3725 0 0 1 207 212 210
-44.5782 108.677 -92.4762 0 0 1 202 198 193
-48.3117 107.681 -92.495 0 0 1 201 210 212
-65.0767 115.193 -92.3449 0 0 1 187 190 187
-64.0239 108.432 -92.226 0 0 1 157 158 156
-47.2695 128.866 -92.9122 0 0 1 195 202 202
-50.3765 112.691 -92.6154 0 0 1 197 205 208
-58.4778 134.23 -92.6905 0 0 1 196 197 200
-44.9972 108.42 -92.4423 0 0 1 217 213 211
-59.8256 112.206 -92.3966 0 0 1 223 229 228
-66.0189 112.033 -92.2634 0 0 1 109 110 112
-60.171 110.521 -92.3783 0 0 1 222 228 227
-68.0326 108.588 -82.2077 0 0 1 79 87 64
-44.034 120.151 -92.7711 0 0 1 139 170 102
-48.1336 103.814 -92.2302 0 0 1 206 214 216
-66.4376 126.569 -92.4996 0 0 1 186 190 186
-69.2292 115.832 -91.1935 0 0 1 105 120 129
-70.7882 125.306 -85.4666 0 0 1 173 185 148
-58.3782 103.241 -92.1411 0 0 1 202 208 208
-68.7207 124.257 -91.2711 0 0 1 202 219 221
-55.8432 126.204 -92.6132 0 0 1 200 206 208
-54.7843 128.84 -92.6542 0 0 1 199 206 208
-70.96 133.894 -88.9859 0 0 1 125 115 77
-55.8582 111.323 -92.4843 0 0 1 163 169 169
-69.9992 103.901 -81.9994 0 0 1 138 145 92
-57.1118 135.015 -92.744 0 0 1 205 227 234
-57.7483 106.828 -92.2968 0 0 1 217 224 224
-69.7779 114.433 -84.2312 0 0 1 154 158 150
-60.2801 110.373 -92.3469 0 0 1 220 228 227
-58.1514 105.681 -92.1515 0 0 1 209 218 217
-58.658 111.73 -92.288 0 0 1 216 225 224
-61.0325 105.807 -92.2427 0 0 1 195 199 195
-70.0522 127.676 -92.2079 0 0 1 109 110 76
-63.9529 129.766 -92.4559 0 0 1 195 200 200
-70.3685 102.864 -88.5329 0 0 1 84 89 57
-52.3815 123.18 -92.5637 0 0 1 201 210 212
-44.1813 131.286 -92.9604 0 0 1 176 174 131
-45.4031 134.351 -93.0719 0 0 1 194 200 200
-48.1481 112.133 -92.7072 0 0 1 188 193 198
-45.0453 119.023 -92.6548 0 0 1 182 184 140
-43.9706 111.81 -92.549 0 0 1 173 170 130
-60.9858 106.546 -92.2788 0 0 1 196 200 196
-59.0037 102.426 -92.1914 0 0 1 193 200 198
-49.2039 104.915 -92.388 0 0 1 205 213 214
-54.2561 113.16 -92.4502 0 0 1 207 212 215
-44.6979 120.585 -92.7446 0 0 1 177 185 140
-67.0765 108.23 -83.0901 0 0 1 85 81 59
-52.889 102.973 -92.1799 0 0 1 204 211 212
-57.5537 107.653 -92.2812 0 0 1 215 222 222
-57.0801 124.473 -92.5317 0 0 1 210 215 216
-72.8994 123.732 -92.8024 0 0 1 34 34 26
-54.1559 123.238 -92.609 0 0 1 204 212 214
-69.3835 116.637 -88.4717 0 0 1 23 37 48
-50.1314 106.416 -92.5128 0 0 1 160 162 169
-57.5252 121.266 -92.4363 0 0 1 208 213 214
-63.2141 106.404 -92.2283 0 0 1 163 164 160
-69.6496 127.801 -90.9344 0 0 1 133 142 98
-55.7343 122.649 -92.5398 0 0 1 204 210 212
-49.4501 111.475 -92.46 0 0 1 196 203 206
-59.366 110.537 -92.2591 0 0 1 217 223 223
-68.8374 123.832 -91.2692 0 0 1 188 213 216
-59.3758 130.074 -92.5965 0 0 1 183 184 189
-71.0369 121.362 -86.8487 0 0 1 73 94 96
-60.2209 106.693 -92.3256 0 0 1 205 209 207
-44.9221 128.116 -92.9098 0 0 1 158 168 117
-66.3222 108.402 -91.053 0 0 1 76 125 128
-68.3456 134.797 -88.8803 0 0 1 165 161 111
-50.3562 125.261 -92.7186 0 0 1 203 210 211
-61.3842 130.168 -92.5671 0 0 1 193 200 204
-48.484 107.806 -92.6021 0 0 1 133 135 140
-58.7739 106.145 -92.3165 0 0 1 213 221 220
-63.2907 134.126 -92.687 0 0 1 169 174 173
-46.5573 107.47 -92.5606 0 0 1 201 209 211
-70.641 117.289 -84.1832 0 0 1 69 84 52
-61.2565 102.028 -92.237 0 0 1 182 185 172
-64.3209 109.016 -92.2668 0 0 1 163 163 157
-73.2516 127.677 -94.1347 0 0 1 82 79 61
-46.386 106.897 -92.383 0 0 1 200 209 211
-57.9406 104.448 -92.3539 0 0 1 210 220 218
-50.0465 107.087 -92.3426 0 0 1 202 210 212
-48.0261 129.041 -92.8681 0 0 1 198 206 207
-50.8662 114.066 -92.5795 0 0 1 207 214 217
-62.5789 108.853 -92.2711 0 0 1 192 196 191
-47.1927 112.702 -92.5679 0 0 1 193 198 201
-62.5842 106.897 -92.1967 0 0 1 177 180 177
-71.3861 125.123 -89.8834 0 0 1 104 95 78
-72.1623 132.178 -92.9313 0 0 1 90 95 68
-53.7558 117.091 -92.5835 0 0 1 209 216 218
-48.4364 131.238 -92.8858 0 0 1 197 204 206
-71.4501 126.434 -92.6116 0 0 1 90 85 62
-66.3378 105.476 -83.5758 0 0 1 114 120 74
-62.4333 125.888 -92.4048 0 0 1 191 191 187
-59.3838 123.697 -92.5342 0 0 1 200 205 206
-71.2555 131.183 -93.9008 0 0 1 85 76 55
-53.8759 128.473 -92.6775 0 0 1 203 209 211
-53.317 132.298 -92.8747 0 0 1 193 200 207
-50.6637 102.952 -92.2244 0 0 1 206 214 216
-67.442 135.452 -91.2994 0 0 1 66 66 47
-72.1473 102.78 -89.2914 0 0 1 155 148 113
-66.5369 106.554 -82.0697 0 0 1 135 145 101
-73.085 122.862 -92.7945 0 0 1 35 31 24
-51.6033 105.267 -92.301 0 0 1 205 212 214
-64.9596 121.107 -92.4111 0 0 1 189 192 191
-65.9236 133.287 -92.1184 0 0 1 78 78 51
-54.118 133.898 -92.8179 0 0 1 213 236 247
-57.2888 106.344 -92.3834 0 0 1 210 215 214
-63.3961 111.5 -92.3567 0 0 1 191 194 189
-47.9046 105.927 -92.3429 0 0 1 200 208 210
-52.6898 125.923 -92.7747 0 0 1 205 211 214
-65.7305 130.485 -91.5219 0 0 1 207 215 214
-70.4962 124.972 -91.5215 0 0 1 109 124 79
-51.3369 124.361 -92.779 0 0 1 202 210 212
-70.2701 119.2 -84.9611 0 0 1 90 109 92
-70.3715 123.228 -91.1966 0 0 1 0 0 0
-71.9888 102.8 -90.8032 0 0 1 54 50 32
-45.6084 129.56 -92.967 0 0 1 197 202 201
-61.5176 112.15 -92.4122 0 0 1 208 211 212
-60.7875 114.354 -92.366 0 0 1 217 221 221
-54.7519 112.423 -92.6591 0 0 1 207 215 217
-51.8204 119.653 -92.6386 0 0 1 204 212 214
-51.9996 112.875 -92.6783 0 0 1 188 192 198
-66.9762 124.427 -92.4378 0 0 1 170 171 168
-71.7887 129.758 -92.4171 0 0 1 84 88 59
-46.9677 122.586 -92.7576 0 0 1 232 241 247
-46.7775 117.5 -92.6177 0 0 1 177 186 153
-65.0432 121.167 -92.4195 0 0 1 189 193 192
-54.7889 112.984 -92.4923 0 0 1 204 213 215
-68.3022 134.456 -89.3942 0 0 1 155 143 96
-51.5082 104.445 -92.2614 0 0 1 204 212 214
-71.3925 113.857 -86.5574 0 0 1 48 64 42
-53.0839 120.004 -92.5635 0 0 1 202 209 211
-58.1179 112.047 -92.3315 0 0 1 216 225 225
-69.3045 122.731 -91.241 0 0 1 173 214 218
-54.1335 133.379 -92.7944 0 0 1 219 233 242
-63.9592 125.067 -92.4364 0 0 1 194 198 195
-70.0401 109.224 -81.5096 0 0 1 52 50 33
-58.4286 133.815 -92.6174 0 0 1 191 196 200
-50.2541 109.529 -92.4714 0 0 1 203 210 212
-50.6363 112.633 -92.5397 0 0 1 195 203 206
-51.7695 124.695 -92.6784 0 0 1 203 210 213
-48.9331 111.167 -92.4263 0 0 1 195 202 205
-55.5444 129.31 -92.8042 0 0 1 204 209 214
-52.8151 122.408 -92.7037 0 0 1 202 208 211
-54.7292 131.041 -92.7299 0 0 1 206 214 222
-50.5313 112.164 -92.6643 0 0 1 201 208 211
-70.9563 102.649 -90.9791 0 0 1 55 54 36
-44.4714 130.032 -92.8819 0 0 1 170 166 127
-46.4953 122.92 -92.77 0 0 1 148 163 130
-63.967 122.612 -92.4293 0 0 1 201 204 203
-54.1475 116.099 -92.5118 0 0 1 206 213 215
-57.5352 122.937 -92.5372 0 0 1 215 218 217
-64.4023 116.105 -92.3573 0 0 1 206 212 208
-69.5437 105.518 -82.3222 0 0 1 95 93 60
-46.0017 131.968 -92.9599 0 0 1 189 196 195
-47.1352 118.953 -92.7462 0 0 1 184 192 176
-46.5363 119.798 -92.7327 0 0 1 157 162 117
-51.5317 103.53 -92.222 0 0 1 206 213 215
-66.0472 104.081 -86.7394 0 0 1 83 77 65
-57.1152 111.115 -92.4246 0 0 1 213 222 221
-47.8123 120.544 -92.741 0 0 1 226 226 227
-70.889 124.791 -89.6941 0 0 1 153 156 110
-45.3605 103.73 -92.4202 0 0 1 203 211 213
-71.5935 134.933 -88.1454 0 0 1 113 130 72
-67.8405 135.086 -90.9296 0 0 1 137 144 94
-45.8572 110.404 -92.4613 0 0 1 199 205 207
-59.4935 113.58 -92.3562 0 0 1 209 215 215
-64.6557 109.04 -92.3107 0 0 1 156 156 155
-60.264 110.285 -92.3944 0 0 1 216 223 223
-48.5106 135.145 -92.9848 0 0 1 196 203 204
-69.1083 131.519 -92.7348 0 0 1 79 95 55
-66.6558 110.58 -91.248 0 0 1 63 91 83
-64.2788 109.203 -92.3107 0 0 1 159 160 159
-54.8847 130.673 -92.7031 0 0 1 208 219 228
-57.0528 109.252 -92.5058 0 0 1 0 0 0
-63.4045 104.137 -92.0966 0 0 1 108 106 106
-54.832 119.23 -92.5917 0 0 1 203 209 212
-60.7892 128.23 -92.5618 0 0 1 190 194 193
-67.7949 107.088 -81.6781 0 0 1 113 114 84
-57.6794 130.13 -92.7039 0 0 1 203 208 212
-48.603 114.124 -92.5557 0 0 1 201 208 208
-49.1453 104.324 -92.3166 0 0 1 206 214 216
-49.7558 106.337 -92.3706 0 0 1 208 213 216
-66.7197 112.387 -92.3178 0 0 1 69 68 71
-72.0263 121.88 -90.2974 0 0 1 28 31 26
-65.8603 134.069 -92.2719 0 0 1 103 120 76
-64.8339 128.913 -92.5956 0 0 1 191 195 193
-47.1739 117.364 -92.5929 0 0 1 155 206 214
-51.8562 114.901 -92.7284 0 0 1 169 176 174
-54.3087 126.056 -92.7251 0 0 1 200 207 209
-66.2091 132.425 -92.1129 0 0 1 92 113 80
-62.7053 120.539 -92.4548 0 0 1 181 187 185
-67.7612 121.629 -92.3758 0 0 1 166 166 161
-55.2304 108.585 -92.4737 0 0 1 204 210 210
-45.276 121.913 -92.7607 0 0 1 177 193 137
-44.4434 111.527 -92.607 0 0 1 148 154 101
-70.1968 120.825 -86.9308 0 0 1 85 104 75
-57.9672 113.577 -92.3782 0 0 1 211 216 219
-66.8952 117.042 -92.3443 0 0 1 192 193 188
-68.7112 104.157 -81.7671 0 0 1 147 150 101
-69.4529 116.401 -91.212 0 0 1 35 52 69
-44.5912 117.645 -92.6958 0 0 1 134 150 102
-68.9029 127.678 -91.2909 0 0 1 125 119 94
-50.6616 121.206 -92.6226 0 0 1 202 209 211
-59.3924 119.09 -92.42 0 0 1 208 213 213
-71.1306 131.757 -91.9457 0 0 1 112 126 73
-54.5481 110.968 -92.4702 0 0 1 205 211 214
-50.2139 101.966 -92.3284 0 0 1 205 212 214
-60.3235 114.341 -92.3002 0 0 1 216 221 219
-56.9818 110.232 -92.2903 0 0 1 214 221 221
-59.7066 118.045 -92.4073 0 0 1 213 217 216
-53.3863 132.197 -92.8841 0 0 1 194 201 207
-55.523 126.188 -92.6572 0 0 1 199 204 207
-52.2827 115.305 -92.5226 0 0 1 205 211 214
-47.7858 112.137 -92.6822 0 0 1 191 198 201
-50.717 103.646 -92.1706 0 0 1 206 212 215
-65.6617 103.686 -84.4428 0 0 1 187 203 191
-53.9519 106.429 -92.2163 0 0 1 206 212 214
-64.7323 117.984 -92.3508 0 0 1 197 202 198
-56.2024 115.153 -92.4873 0 0 1 207 213 216
-43.9791 119.613 -92.6995 0 0 1 124 149 93
-50.9283 104.133 -92.2872 0 0 1 208 214 216
-60.4608 106.295 -92.3831 0 0 1 174 178 179
-68.789 105.183 -81.0941 0 0 1 153 159 104
-67.5943 120.44 -92.2978 0 0 1 172 175 169
-64.001 125.468 -92.5555 0 0 1 191 194 193
-48.962 129.496 -92.7883 0 0 1 200 208 210
-46.7567 135.345 -92.9665 0 0 1 201 209 209
-52.5416 133.443 -92.9392 0 0 1 197 204 208
-46.9911 105.86 -92.2971 0 0 1 203 211 213
-69.2683 121.91 -91.6346 0 0 1 159 208 210
-58.6438 125.112 -92.605 0 0 1 204 210 211
-57.0275 130.116 -92.6804 0 0 1 198 203 209
-70.3239 132.722 -89.5818 0 0 1 86 111 75
-44.1722 122.664 -92.8685 0 0 1 194 196 152
-49.1233 109.483 -92.4077 0 0 1 193 201 204
-54.9356 125.38 -92.5853 0 0 1 203 207 210
-54.6765 118.38 -92.5994 0 0 1 205 211 213
-58.2816 126.881 -92.5944 0 0 1 203 208 212
-50.3688 114.775 -92.4754 0 0 1 204 212 214
-72.2104 102.856 -89.1581 0 0 1 26 25 21
-62.2729 127.525 -92.5507 0 0 1 200 204 201
-64.6381 127.336 -92.4666 0 0 1 196 200 198
-62.1579 135.291 -92.6501 0 0 1 175 184 187
-53.4645 119.263 -92.6704 0 0 1 199 207 209
-49.1193 105.521 -92.5586 0 0 1 219 227 229
-72.8999 132.55 -94.9568 0 0 1 107 101 79
-68.3964 119.245 -92.3332 0 0 1 144 141 132
-57.11 116.515 -92.511 0 0 1 209 214 217
-69.5114 135.262 -88.9479 0 0 1 112 116 67
-64.7174 135.605 -92.2269 0 0 1 74 84 56
-51.5775 126.872 -92.7545 0 0 1 205 212 214
-58.1052 117.93 -92.5002 0 0 1 210 215 214
-72.062 134.129 -90.1411 0 0 1 88 99 59
-59.8443 110.206 -92.3084 0 0 1 222 229 229
-49.5522 132.215 -92.8352 0 0 1 202 208 210
-70.6516 122.376 -91.9651 0 0 1 188 206 213
-66.8815 107.766 -90.8841 0 0 1 42 53 29
-51.5155 115.571 -92.6074 0 0 1 207 216 218
-47.6044 105.037 -92.4466 0 0 1 201 210 212
-52.4889 108.358 -92.3079 0 0 1 209 214 217
-64.7362 109.058 -92.2436 0 0 1 156 156 155
-56.358 112.754 -92.546 0 0 1 204 211 213
-58.0245 122.509 -92.5977 0 0 1 223 223 215
-54.047 121.257 -92.6386 0 0 1 201 207 209
-63.3306 102.379 -91.0415 0 0 1 176 213 218
-51.0353 121.286 -92.6599 0 0 1 208 213 216
-47.0058 122.51 -92.8228 0 0 1 240 246 247
-58.7597 120.666 -92.4982 0 0 1 203 209 210
-45.313 120.763 -92.751 0 0 1 161 174 122
-72.374 132.158 -94.8916 0 0 1 28 27 19
-55.1081 126.035 -92.6249 0 0 1 197 202 205
-51.6813 107.62 -92.4389 0 0 1 207 213 215
-68.5675 108.642 -80.9708 0 0 1 166 174 133
-50.8583 126.051 -92.7464 0 0 1 199 208 210
-66.4454 115.296 -92.3023 0 0 1 187 191 185
-45.6755 124.789 -92.7526 0 0 1 170 183 122
-55.1727 134.606 -92.7738 0 0 1 254 255 255
-69.2109 120.948 -92.2915 0 0 1 148 136 117
-68.4184 111.146 -84.9899 0 0 1 42 44 32
-58.6143 128.854 -92.5912 0 0 1 192 199 201
-48.5415 103.967 -92.2071 0 0 1 205 213 215
-47.6529 109.842 -92.536 0 0 1 194 202 204
-50.7474 123 -92.7571 0 0 1 208 214 217
-66.9778 105.181 -83.2416 0 0 1 101 111 70
-61.3226 110.308 -92.2749 0 0 1 208 213 211
